6.343,6.341,6.34,6.333,6.346,6.356,6.374,6.422,6.611,6.616,6.623,6.62,6.641,6.65,6.666,6.662,6.685,6.68,6.694,6.692,6.711,6.72,6.736,6.731,6.758,6.762,6.763,6.768,6.781,6.796,6.819,6.825,6.848,6.851,6.858,6.858,6.88,6.886,6.862,6.77,6.708,6.635,6.563,6.487,6.429,6.369,6.311,6.25,6.2,6.122,6.069,5.998,5.95,5.903,5.85,5.796,5.75,5.694,5.645,5.578,5.544,5.495,5.467,5.413,5.381,5.327,5.293,5.3,5.317,5.322,5.344,5.358,5.376,5.384,5.385,5.404,5.411,5.429,5.434,5.459,5.381,5.313,5.324,5.443,5.51,5.553,5.571,5.591,5.618,5.6,5.58,7.857,7.883,7.879,4.98,5.008,8.009,7.998,8.023,8.061,8.08,8.128,8.162,8.161,8.189,4.579,4.555,4.541,4.546,4.533,4.493,4.45,4.419,4.42,4.422,4.441,4.396,4.38,4.361,4.338,4.316,4.274,4.257,4.24,4.225,4.251,4.187,4.173,4.175,4.136,4.1,4.099,4.102,60,60,60,60,60,60,60,60,60,3.394,3.419,3.387,3.382,3.362,3.357,3.348,3.343,3.326,3.33,3.277,3.284,3.268,3.259,3.254,3.255,3.232,3.219,3.203,3.2,3.172,3.186,3.172,3.165,3.148,3.139,3.118,3.115,3.095,3.102,3.092,3.086,3.069,3.062,3.046,3.035,3.026,3.034,3.019,3.017,3.007,2.989,2.977,2.972,2.965,2.965,2.944,2.953,2.938,2.934,2.917,2.913,2.9,2.901,2.895,2.905,2.898,2.898,2.873,2.871,2.862,2.863,2.857,2.858,2.848,2.837,2.824,2.819,2.815,2.821,2.809,2.804,2.801,2.798,2.782,2.777,2.767,2.773,2.773,2.779,2.756,2.747,2.737,2.735,2.727,2.736,2.728,2.723,2.721,2.713,2.695,2.692,2.699,2.691,2.692,2.695,2.688,2.672,2.663,2.664,2.65,2.679,2.663,2.663,2.645,2.641,2.628,2.634,2.637,2.632,2.625,2.637,2.619,2.605,2.603,2.611,2.594,2.605,2.601,2.607,2.593,2.596,2.571,2.577,2.581,2.596,2.578,2.59,2.57,2.569,2.558,2.566,2.567,2.579,2.565,2.568,2.559,2.552,2.553,2.553,2.549,2.56,2.555,2.567,2.546,2.545,2.539,2.544,2.537,2.555,2.546,2.552,2.519,2.54,2.531,2.537,2.541,2.547,2.549,2.544,2.522,2.54,2.526,2.54,2.529,2.541,2.539,2.544,2.524,2.523,2.527,2.539,2.543,2.543,2.538,2.55,2.53,2.532,2.524,2.539,2.538,2.551,2.594,2.794,2.891,2.891,2.872,2.892,2.896,2.89,2.877,2.863,2.864,2.854,2.86,2.898,60,60,60,60,60,60,60,60,60,60,60,60,60,60,60,60,60,60,60,60,60,60,60,60,60,60,60,60,60,60,3.007,3.008,3.019,3.033,60,60,60,60,60,60,60,60,60,60,60,60,60,60,60,60,60,2.025,2.042,2.004,1.987,1.972,1.965,1.971,1.961,1.955,1.933,1.942,1.94,1.952,1.953,1.978,1.977,1.976,1.982,1.998,2.002,2.029,2.048,2.07,2.078,2.093,2.103,2.142,2.179,2.23,2.235,60,60,60,60,60,60,60,60,60,60,60,60,60,60,60,60,60,60,60,60,60,60,3.466,3.449,3.454,3.468,60,60,60,60,60,60,60,60,60,60,60,60,60,60,3.999,4.007,3.944,3.952,3.984,3.958,3.948,3.741,3.706,3.683,3.697,3.705,3.784,3.796,3.783,3.788,3.76,3.753,3.712,3.702,3.685,3.678,3.667,3.659,3.646,3.637,3.604,3.595,3.579,3.582,3.575,3.577,3.609,3.617,3.631,3.638,3.669,3.684,3.713,3.715,3.75,3.753,3.764,3.78,3.805,3.817,3.851,3.87,3.882,3.898,3.924,3.932
6.32,6.333,6.331,6.334,6.342,6.347,6.345,6.359,6.375,6.423,6.61,6.626,6.619,6.637,6.642,6.665,6.673,6.678,6.679,6.701,6.694,6.709,6.708,6.732,6.744,6.77,6.763,6.776,6.764,6.786,6.788,6.811,6.815,6.845,6.852,6.866,6.857,6.884,6.886,6.913,6.879,6.817,6.725,6.662,6.579,6.522,6.451,6.408,6.322,6.276,6.21,6.153,6.084,6.024,5.971,5.927,5.871,5.826,5.778,5.729,5.656,5.616,5.562,5.529,5.475,5.453,5.397,5.351,5.312,5.309,5.322,5.342,5.355,5.375,5.389,5.379,5.395,5.396,5.418,5.436,5.451,5.464,5.431,5.339,5.348,5.414,5.513,5.579,5.556,5.623,5.618,5.639,5.626,7.847,7.908,7.956,5.002,4.98,8.028,8.017,8.057,8.069,8.118,8.153,8.168,8.188,8.208,4.582,4.565,4.559,4.575,4.567,4.546,4.483,4.45,4.447,4.458,4.456,4.44,4.424,4.397,4.375,4.364,4.333,4.279,4.29,4.257,4.257,4.227,4.214,4.188,4.167,4.141,4.114,4.111,4.105,4.08,4.066,4.055,4.034,4.027,3.981,3.945,60,60,3.463,3.432,3.414,3.383,3.385,3.371,3.366,3.355,3.354,3.335,3.315,3.294,3.285,3.276,3.27,3.268,3.25,3.247,3.221,3.212,3.196,3.192,3.187,3.189,3.169,3.164,3.128,3.132,3.117,3.116,3.108,3.104,3.093,3.085,3.057,3.065,3.044,3.05,3.035,3.036,3.024,3.013,3.002,2.995,2.975,2.98,2.982,2.979,2.963,2.955,2.926,2.929,2.92,2.927,2.936,2.935,2.926,2.917,2.902,2.893,2.877,2.882,2.874,2.876,2.873,2.864,2.847,2.852,2.835,2.835,2.836,2.835,2.821,2.815,2.802,2.799,2.793,2.8,2.785,2.788,2.771,2.772,2.764,2.759,2.745,2.756,2.752,2.755,2.738,2.738,2.723,2.714,2.717,2.729,2.715,2.716,2.707,2.702,2.682,2.695,2.684,2.682,2.675,2.67,2.674,2.662,2.649,2.645,2.646,2.655,2.644,2.649,2.643,2.643,2.624,2.626,2.619,2.633,2.622,2.631,2.621,2.619,2.601,2.614,2.598,2.619,2.606,2.609,2.599,2.603,2.582,2.584,2.578,2.595,2.597,2.593,2.587,2.58,2.574,2.591,2.574,2.589,2.579,2.589,2.568,2.574,2.563,2.565,2.563,2.577,2.569,2.578,2.569,2.565,2.562,2.566,2.558,2.574,2.568,2.578,2.559,2.571,2.558,2.563,2.559,2.573,2.567,2.572,2.566,2.557,2.548,2.572,2.561,2.574,2.565,2.574,2.554,2.565,2.554,2.572,2.611,2.846,2.937,2.938,2.927,2.908,2.911,2.897,2.903,2.892,2.883,2.903,2.905,2.922,60,60,60,60,60,60,60,60,60,60,60,60,60,60,60,60,60,60,60,60,60,60,60,60,60,60,60,60,60,3.058,3.026,3.024,3.023,3.068,60,60,60,60,60,60,60,60,60,60,60,60,60,60,60,60,2.079,2.082,2.059,2.036,1.997,1.993,1.992,1.997,1.99,1.986,1.994,1.975,1.982,1.975,1.994,2.008,2.034,2.025,2.05,2.043,2.055,2.063,2.092,2.122,2.149,2.175,2.225,2.289,3.213,3.235,60,60,60,60,60,60,60,60,60,60,60,60,60,60,60,60,60,60,60,60,60,60,3.475,3.459,3.493,3.492,60,60,60,60,60,60,60,60,60,60,60,60,60,60,60,4.003,4.001,3.999,4.033,3.986,3.943,3.769,3.696,3.714,3.728,3.736,3.802,3.809,3.817,3.783,3.788,3.774,3.769,3.735,3.726,3.697,3.684,3.671,3.657,3.654,3.642,3.626,3.587,3.587,3.589,3.602,3.615,3.651,3.652,3.679,3.669,3.696,3.715,3.736,3.759,3.78,3.79,3.815,3.83,3.839,3.857,3.878,3.892,3.933,3.953,3.974
6.534,6.343,6.316,6.321,6.324,6.345,6.351,6.361,6.365,6.382,6.364,6.379,6.51,6.621,6.634,6.66,6.662,6.664,6.671,6.68,6.681,6.701,6.715,6.722,6.732,6.739,6.74,6.756,6.749,6.771,6.792,6.799,6.814,6.816,6.823,6.828,6.852,6.853,6.884,6.884,6.911,6.908,6.905,6.838,6.77,6.682,6.631,6.562,6.509,6.437,6.367,6.295,6.244,6.186,6.135,6.077,6.03,5.978,5.908,5.851,5.801,5.753,5.72,5.662,5.624,5.569,5.521,5.475,5.433,5.392,5.348,5.333,5.348,5.349,5.362,5.352,5.382,5.402,5.421,5.426,5.454,5.454,5.459,5.47,5.476,5.388,5.368,5.393,5.498,5.551,5.583,5.614,5.626,5.643,5.642,5.634,7.916,7.943,7.974,4.983,4.991,8.03,8.093,8.117,8.138,8.146,8.19,8.189,8.251,8.259,4.627,4.599,4.602,4.601,4.575,4.54,4.456,4.449,4.472,4.495,4.516,4.497,4.443,4.403,4.419,4.383,4.355,4.331,4.293,4.288,4.277,4.227,4.214,4.183,4.192,4.163,4.142,4.119,4.084,4.077,4.063,4.076,4.06,4.045,4.008,3.98,3.968,3.861,3.468,3.455,3.443,3.422,3.429,3.394,3.388,3.354,3.352,3.349,3.35,3.33,3.328,3.299,3.282,3.273,3.273,3.258,3.254,3.238,3.243,3.217,3.21,3.184,3.183,3.179,3.178,3.159,3.163,3.14,3.125,3.107,3.112,3.102,3.112,3.095,3.079,3.057,3.061,3.033,3.05,3.035,3.041,3.02,3.022,2.992,3.002,2.969,2.978,2.975,2.975,2.957,2.957,2.941,2.949,2.939,2.943,2.932,2.931,2.92,2.918,2.913,2.901,2.888,2.889,2.888,2.892,2.882,2.885,2.852,2.845,2.845,2.843,2.835,2.84,2.832,2.832,2.807,2.823,2.793,2.812,2.795,2.801,2.788,2.787,2.773,2.773,2.763,2.775,2.757,2.77,2.759,2.752,2.734,2.739,2.731,2.736,2.727,2.741,2.72,2.718,2.697,2.688,2.686,2.69,2.692,2.689,2.692,2.668,2.675,2.664,2.668,2.665,2.675,2.656,2.67,2.653,2.654,2.639,2.65,2.643,2.649,2.645,2.649,2.637,2.625,2.621,2.63,2.625,2.631,2.623,2.629,2.613,2.625,2.608,2.619,2.611,2.626,2.615,2.619,2.612,2.598,2.599,2.605,2.604,2.605,2.606,2.612,2.593,2.594,2.585,2.596,2.594,2.609,2.594,2.606,2.585,2.588,2.582,2.599,2.588,2.602,2.599,2.601,2.585,2.591,2.587,2.591,2.594,2.613,2.595,2.601,2.583,2.587,2.583,2.593,2.598,2.593,2.635,2.774,2.94,2.953,2.951,2.948,2.961,2.951,2.934,2.914,2.907,2.917,2.908,2.969,3.057,60,60,60,60,60,60,60,60,60,60,60,60,60,60,60,60,60,60,60,60,60,60,60,60,60,60,60,60,3.04,3.052,3.071,3.056,3.078,60,60,60,60,60,60,60,60,60,60,60,60,60,60,60,60,2.207,2.111,2.075,2.048,2.049,2.03,2.014,2.032,2.03,2.023,2.008,2.009,2.019,2.034,2.046,2.061,2.063,2.069,2.067,2.096,2.106,2.143,2.151,2.175,2.196,2.262,2.226,3.218,3.243,3.291,60,60,60,60,60,60,60,60,60,60,60,60,60,60,60,60,60,60,60,60,60,3.488,3.497,3.504,3.531,60,60,60,60,60,60,60,60,60,60,60,60,60,60,60,4.065,4.044,4.04,4.045,4.039,3.988,3.886,3.758,3.737,3.751,3.769,3.786,3.836,3.834,3.825,3.812,3.799,3.78,3.759,3.731,3.739,3.702,3.704,3.683,3.671,3.674,3.639,3.622,3.606,3.6,3.617,3.633,3.657,3.671,3.686,3.693,3.706,3.729,3.75,3.776,3.787,3.812,3.831,3.843,3.847,3.887,3.899,3.922,3.936,3.966,3.976
6.535,6.548,6.54,6.502,6.329,6.325,6.342,6.346,6.366,6.356,6.366,6.37,6.375,6.377,6.41,6.6,6.645,6.656,6.659,6.663,6.674,6.671,6.692,6.698,6.719,6.729,6.729,6.725,6.746,6.753,6.774,6.777,6.798,6.801,6.811,6.825,6.837,6.844,6.868,6.874,6.896,6.89,6.908,6.91,6.925,6.898,6.828,6.761,6.708,6.627,6.555,6.488,6.434,6.369,6.312,6.246,6.19,6.127,6.08,6.017,5.958,5.916,5.862,5.82,5.777,5.715,5.659,5.615,5.566,5.519,5.493,5.441,5.404,5.341,5.342,5.346,5.367,5.381,5.409,5.41,5.429,5.428,5.446,5.436,5.461,5.488,5.497,5.498,5.405,5.382,5.413,5.523,5.603,5.613,5.634,5.656,5.675,5.652,7.954,7.918,7.966,5.042,5.023,8.04,8.083,8.104,8.126,8.171,8.167,8.232,8.258,8.262,4.665,4.642,4.602,4.604,4.615,4.6,4.551,4.497,4.487,4.483,4.524,4.507,4.521,4.504,4.457,4.42,4.406,4.375,4.344,4.337,4.315,4.295,4.254,4.24,4.223,4.195,4.171,4.149,4.14,4.124,4.116,4.094,4.073,4.073,4.044,4.029,4.012,3.973,3.906,3.501,3.478,3.457,3.447,3.419,3.423,3.415,3.407,3.381,3.38,3.352,3.362,3.322,3.321,3.318,3.318,3.298,3.3,3.26,3.259,3.239,3.239,3.227,3.233,3.218,3.216,3.181,3.182,3.169,3.165,3.148,3.154,3.141,3.135,3.118,3.112,3.088,3.096,3.079,3.093,3.072,3.064,3.043,3.045,3.033,3.036,3.02,3.02,3.007,3.006,2.993,2.976,2.97,2.973,2.973,2.982,2.976,2.973,2.937,2.938,2.932,2.94,2.928,2.928,2.917,2.906,2.904,2.892,2.881,2.885,2.877,2.886,2.879,2.872,2.852,2.853,2.847,2.848,2.842,2.844,2.833,2.827,2.805,2.807,2.806,2.806,2.794,2.818,2.799,2.789,2.782,2.776,2.769,2.78,2.779,2.772,2.771,2.76,2.743,2.756,2.733,2.738,2.725,2.733,2.716,2.715,2.703,2.702,2.703,2.711,2.7,2.708,2.686,2.688,2.676,2.681,2.675,2.686,2.69,2.687,2.67,2.665,2.662,2.664,2.658,2.67,2.667,2.666,2.662,2.661,2.645,2.643,2.634,2.64,2.65,2.655,2.639,2.638,2.627,2.628,2.629,2.645,2.647,2.643,2.632,2.637,2.628,2.632,2.622,2.639,2.634,2.634,2.624,2.638,2.618,2.627,2.626,2.636,2.626,2.64,2.629,2.624,2.616,2.619,2.611,2.631,2.626,2.639,2.631,2.63,2.611,2.625,2.62,2.635,2.63,2.639,2.632,2.677,2.898,2.979,2.995,2.992,2.988,2.983,2.965,2.946,2.945,2.943,2.949,2.988,3.04,60,60,60,60,60,60,60,60,60,60,60,60,60,60,60,60,60,60,60,60,60,60,60,60,60,60,60,60,3.086,3.072,3.095,3.107,3.091,60,60,60,60,60,60,60,60,60,60,60,60,60,60,60,2.379,2.212,2.142,2.1,2.099,2.073,2.066,2.072,2.057,2.057,2.038,2.052,2.05,2.069,2.069,2.09,2.084,2.09,2.108,2.126,2.136,2.177,2.178,2.212,2.224,2.285,2.261,3.247,3.268,3.286,3.333,60,60,60,60,60,60,60,60,60,60,60,60,60,60,60,60,60,60,60,60,60,3.509,3.53,3.535,3.556,60,60,60,60,60,60,60,60,60,60,60,60,60,60,60,4.063,4.066,4.084,4.026,4.055,4.011,3.838,3.762,3.758,3.771,3.787,3.844,3.865,3.859,3.85,3.832,3.817,3.797,3.76,3.761,3.739,3.737,3.716,3.709,3.69,3.669,3.65,3.639,3.623,3.646,3.652,3.684,3.691,3.71,3.707,3.731,3.739,3.77,3.788,3.809,3.817,3.842,3.842,3.863,3.886,3.915,3.921,3.957,3.979,3.983
6.518,6.516,6.533,6.521,6.532,6.54,6.52,6.345,6.34,6.34,6.35,6.332,6.365,6.37,6.384,6.384,6.398,6.403,6.601,6.634,6.656,6.663,6.677,6.693,6.701,6.688,6.708,6.702,6.722,6.734,6.753,6.77,6.787,6.777,6.792,6.787,6.81,6.819,6.837,6.848,6.858,6.862,6.879,6.88,6.901,6.909,6.929,6.937,6.916,6.823,6.76,6.674,6.63,6.564,6.511,6.435,6.393,6.311,6.259,6.18,6.143,6.088,6.042,5.982,5.935,5.874,5.825,5.765,5.739,5.681,5.641,5.585,5.563,5.488,5.457,5.404,5.374,5.349,5.366,5.387,5.405,5.397,5.42,5.423,5.443,5.459,5.482,5.49,5.497,5.501,5.498,5.401,5.385,5.437,5.556,5.589,5.634,5.648,5.683,5.68,5.669,5.732,7.984,8.02,5.055,5.043,8.077,8.096,8.152,8.172,8.198,8.237,8.242,8.253,8.311,8.338,4.655,4.636,4.632,4.635,4.617,4.564,4.522,4.487,4.512,4.51,4.55,4.516,4.471,4.441,4.423,4.393,4.381,4.353,4.366,4.325,4.291,4.278,4.247,4.213,4.223,4.19,4.208,4.169,4.14,4.136,4.117,4.132,4.088,4.068,4.083,4.062,4.022,60,3.499,3.497,3.478,3.482,3.466,3.456,3.433,3.418,3.395,3.398,3.39,3.387,3.366,3.36,3.331,3.314,3.317,3.309,3.297,3.304,3.279,3.281,3.256,3.245,3.229,3.233,3.223,3.224,3.206,3.201,3.173,3.167,3.154,3.138,3.145,3.14,3.137,3.124,3.108,3.101,3.089,3.072,3.088,3.078,3.077,3.057,3.048,3.033,3.036,3.015,3.02,3.009,3.016,3.005,3.018,2.985,2.988,2.977,2.99,2.984,2.979,2.958,2.955,2.938,2.947,2.941,2.942,2.928,2.933,2.898,2.908,2.893,2.901,2.893,2.896,2.883,2.892,2.871,2.861,2.85,2.853,2.848,2.852,2.845,2.86,2.829,2.822,2.811,2.816,2.819,2.822,2.816,2.801,2.806,2.787,2.785,2.788,2.79,2.787,2.785,2.763,2.76,2.74,2.741,2.728,2.749,2.736,2.739,2.737,2.734,2.721,2.726,2.719,2.724,2.712,2.719,2.707,2.703,2.697,2.703,2.698,2.706,2.695,2.712,2.699,2.688,2.677,2.691,2.679,2.699,2.681,2.692,2.684,2.672,2.659,2.671,2.662,2.683,2.673,2.685,2.669,2.659,2.659,2.653,2.654,2.666,2.665,2.67,2.652,2.645,2.651,2.654,2.653,2.658,2.653,2.661,2.655,2.662,2.646,2.649,2.653,2.664,2.654,2.673,2.64,2.652,2.646,2.651,2.65,2.662,2.661,2.662,2.662,2.65,2.645,2.659,2.726,2.978,3.028,3.026,3.013,3.002,3.007,2.988,2.979,2.983,2.983,2.998,3.033,3.052,60,60,60,60,60,60,60,60,60,60,60,60,60,60,60,60,60,60,60,60,60,60,60,60,60,60,60,60,3.116,3.123,3.124,3.136,60,60,60,60,60,60,60,60,60,60,60,60,60,60,60,2.397,2.256,2.167,2.149,2.115,2.119,2.109,2.102,2.073,2.082,2.079,2.093,2.093,2.101,2.109,2.125,2.114,2.132,2.134,2.15,2.187,2.205,2.232,2.25,2.271,2.359,3.286,3.274,3.297,3.302,3.352,60,60,60,60,60,60,60,60,60,60,60,60,60,60,60,60,60,60,60,60,60,3.597,3.554,3.562,3.58,60,60,60,60,60,60,60,60,60,60,60,60,60,60,60,4.105,4.091,4.074,4.066,4.071,4.043,3.828,3.781,3.781,3.788,3.816,3.874,3.896,3.881,3.875,3.853,3.849,3.802,3.786,3.774,3.761,3.748,3.734,3.729,3.702,3.686,3.664,3.658,3.642,3.664,3.677,3.707,3.71,3.719,3.732,3.749,3.766,3.804,3.813,3.833,3.84,3.863,3.873,3.894,3.915,3.944,3.956,3.989,4.002
6.516,6.509,6.53,6.514,6.522,6.523,6.544,6.546,6.558,6.528,6.36,6.327,6.351,6.341,6.37,6.375,6.389,6.383,6.41,6.386,6.407,6.589,6.652,6.656,6.673,6.682,6.695,6.686,6.703,6.709,6.731,6.734,6.756,6.761,6.766,6.765,6.774,6.79,6.798,6.806,6.824,6.839,6.863,6.855,6.87,6.876,6.902,6.914,6.934,6.941,6.96,6.914,6.832,6.751,6.698,6.637,6.584,6.517,6.459,6.385,6.332,6.263,6.223,6.16,6.116,6.053,6.017,5.938,5.884,5.837,5.8,5.743,5.713,5.649,5.612,5.559,5.516,5.48,5.443,5.397,5.382,5.39,5.41,5.404,5.421,5.418,5.438,5.47,5.474,5.492,5.493,5.51,5.515,5.523,5.435,5.413,5.438,5.572,5.616,5.62,5.668,5.67,5.719,5.694,7.957,8.009,8.028,8.018,5.055,5.05,8.135,8.136,8.216,8.227,8.216,8.226,8.275,8.328,8.374,4.678,4.65,4.649,4.636,4.633,4.607,4.545,4.533,4.529,4.544,4.538,4.505,4.478,4.46,4.448,4.427,4.396,4.401,4.359,4.36,4.34,4.29,4.284,4.247,4.242,4.232,4.214,4.222,4.175,60,60,60,60,60,60,60,60,60,3.541,3.532,3.506,3.514,3.494,3.468,3.444,3.444,3.43,3.431,3.42,3.411,3.395,3.383,3.361,3.352,3.341,3.347,3.323,3.324,3.297,3.293,3.27,3.264,3.264,3.263,3.248,3.252,3.23,3.216,3.198,3.2,3.19,3.19,3.177,3.181,3.153,3.145,3.129,3.134,3.12,3.121,3.11,3.115,3.09,3.074,3.074,3.059,3.05,3.06,3.054,3.051,3.022,3.027,3.025,3.027,3.021,3.019,3.005,3.017,2.994,2.98,2.974,2.982,2.968,2.979,2.967,2.975,2.941,2.941,2.927,2.933,2.928,2.932,2.916,2.904,2.909,2.89,2.895,2.888,2.903,2.889,2.892,2.872,2.87,2.851,2.86,2.851,2.856,2.844,2.854,2.834,2.834,2.813,2.823,2.822,2.823,2.814,2.827,2.801,2.782,2.781,2.778,2.771,2.789,2.777,2.782,2.767,2.759,2.75,2.748,2.757,2.755,2.748,2.762,2.749,2.736,2.729,2.728,2.727,2.741,2.736,2.744,2.728,2.718,2.708,2.716,2.71,2.722,2.72,2.727,2.711,2.714,2.701,2.709,2.71,2.716,2.707,2.714,2.683,2.694,2.684,2.695,2.701,2.696,2.691,2.689,2.68,2.691,2.675,2.692,2.682,2.695,2.696,2.687,2.679,2.684,2.673,2.692,2.687,2.688,2.69,2.687,2.673,2.675,2.669,2.694,2.688,2.698,2.689,2.69,2.67,2.685,2.682,2.698,2.771,3.01,3.052,3.063,3.033,3.038,3.031,3.016,3.016,3.02,3.028,3.015,3.043,60,60,60,60,60,60,60,60,60,60,60,60,60,60,60,60,60,60,60,60,60,60,60,60,60,60,60,60,3.199,3.134,3.16,3.14,3.134,60,60,60,60,60,60,60,60,60,60,60,60,60,60,2.407,2.321,2.225,2.178,2.169,2.157,2.122,2.116,2.116,2.129,2.119,2.137,2.133,2.151,2.13,2.142,2.139,2.154,2.172,2.201,2.217,2.246,2.252,2.264,2.316,2.454,3.311,3.319,3.329,3.342,3.391,60,60,60,60,60,60,60,60,60,60,60,60,60,60,60,60,60,60,60,60,60,3.619,3.583,3.563,3.617,60,60,60,60,60,60,60,60,60,60,60,60,60,60,60,4.12,4.1,4.097,4.106,4.082,4.068,3.848,3.799,3.803,3.819,3.84,3.913,3.928,3.912,3.906,3.868,3.848,3.829,3.812,3.801,3.791,3.785,3.759,3.745,3.716,3.701,3.694,3.692,3.682,3.706,3.713,3.723,3.721,3.736,3.764,3.787,3.821,3.827,3.843,3.848,3.869,3.874,3.911,3.923,3.958,3.972,3.988,4
6.503,6.488,6.487,6.497,6.516,6.521,6.529,6.534,6.539,6.531,6.542,6.55,6.536,6.351,6.353,6.349,6.359,6.361,6.378,6.377,6.391,6.402,6.414,6.421,6.585,6.642,6.674,6.677,6.702,6.7,6.712,6.722,6.717,6.722,6.739,6.745,6.761,6.769,6.79,6.792,6.8,6.799,6.799,6.835,6.854,6.872,6.868,6.89,6.884,6.902,6.914,6.929,6.943,6.965,6.926,6.855,6.758,6.697,6.632,6.59,6.524,6.466,6.402,6.346,6.275,6.224,6.163,6.125,6.069,6.03,5.964,5.923,5.845,5.803,5.752,5.723,5.67,5.638,5.591,5.553,5.488,5.45,5.402,5.391,5.396,5.419,5.421,5.433,5.431,5.446,5.464,5.476,5.498,5.514,5.523,5.527,5.526,5.462,5.412,5.443,5.553,5.649,5.662,5.667,5.663,5.666,5.585,7.98,8.06,5.182,5.139,5.076,5.05,5.022,4.978,4.976,4.938,4.946,4.898,4.84,4.825,4.785,4.699,4.678,4.645,4.678,4.666,4.648,4.565,4.54,4.539,4.574,4.581,4.555,4.529,8.788,8.876,8.916,8.936,9.012,9.086,9.094,60,9.126,9.168,9.236,60,4.257,4.222,4.252,60,60,60,60,60,60,60,60,60,60,60,3.556,3.545,3.524,3.526,3.5,3.5,3.472,3.469,3.448,3.442,3.43,3.435,3.417,3.396,3.373,3.369,3.345,3.356,3.348,3.343,3.324,3.307,3.291,3.294,3.274,3.279,3.267,3.261,3.246,3.236,3.228,3.214,3.196,3.202,3.181,3.188,3.19,3.176,3.15,3.143,3.136,3.142,3.129,3.125,3.116,3.111,3.082,3.079,3.073,3.086,3.069,3.059,3.052,3.063,3.05,3.043,3.034,3.038,3.036,3.037,3.028,3.006,2.992,2.994,2.987,2.994,2.983,2.985,2.979,2.972,2.945,2.954,2.948,2.954,2.935,2.948,2.932,2.921,2.915,2.918,2.904,2.908,2.906,2.914,2.893,2.885,2.884,2.867,2.867,2.871,2.866,2.873,2.863,2.856,2.842,2.846,2.835,2.849,2.834,2.832,2.812,2.816,2.8,2.792,2.793,2.799,2.792,2.815,2.807,2.787,2.778,2.78,2.774,2.783,2.767,2.78,2.774,2.766,2.747,2.76,2.755,2.765,2.751,2.758,2.755,2.748,2.737,2.74,2.736,2.739,2.741,2.739,2.738,2.731,2.724,2.729,2.724,2.731,2.724,2.719,2.729,2.717,2.72,2.711,2.721,2.724,2.729,2.722,2.726,2.714,2.719,2.707,2.716,2.717,2.735,2.719,2.711,2.704,2.721,2.707,2.723,2.717,2.727,2.73,2.724,2.708,2.716,2.71,2.712,2.722,2.726,2.74,2.721,2.791,3.021,3.075,3.073,3.083,3.081,3.076,3.047,3.037,3.034,3.032,3.045,3.082,60,60,60,60,60,60,60,60,60,60,60,60,60,60,60,60,60,60,60,60,60,60,60,60,60,60,60,60,3.183,3.173,3.183,3.203,60,60,60,60,60,60,60,60,60,60,60,60,60,60,60,2.335,2.253,2.204,2.182,2.173,2.168,2.152,2.153,2.151,2.162,2.164,2.157,2.154,2.167,2.18,2.191,2.204,2.223,2.223,2.253,2.265,2.283,2.315,2.387,2.387,3.35,3.329,3.34,3.346,3.378,60,60,60,60,60,60,60,60,60,60,60,60,60,60,60,60,60,60,60,60,60,3.584,3.596,3.603,3.639,60,60,60,60,60,60,60,60,60,60,60,60,60,60,60,4.197,4.096,4.129,4.132,4.134,4.042,3.865,3.827,3.839,3.851,3.892,3.939,3.933,3.918,3.899,3.892,3.873,3.868,3.854,3.835,3.8,3.783,3.768,3.765,3.747,3.738,3.718,3.72,3.698,3.717,3.728,3.744,3.77,3.785,3.814,3.816,3.835,3.841,3.872,3.881,3.914,3.924,3.942,3.963,3.976,3.986,4.001
6.479,6.477,6.49,6.478,6.49,6.489,6.495,6.5,6.525,6.527,6.522,6.526,6.533,6.539,6.548,6.558,6.56,6.552,6.404,6.337,6.364,6.355,6.369,6.371,6.405,6.406,6.41,6.398,6.42,6.533,6.659,6.67,6.7,6.701,6.723,6.703,6.716,6.722,6.744,6.75,6.771,6.782,6.785,6.791,6.798,6.807,6.819,6.836,6.844,6.873,6.87,6.885,6.884,6.907,6.914,6.941,6.948,6.977,6.968,6.931,6.85,6.783,6.716,6.672,6.598,6.552,6.49,6.428,6.344,6.305,6.253,6.202,6.144,6.105,6.041,5.992,5.93,5.893,5.847,5.797,5.746,5.72,5.657,5.61,5.572,5.545,5.502,5.46,5.421,5.421,5.412,5.433,5.433,5.467,5.48,5.493,5.503,5.528,5.523,5.531,5.551,5.571,5.519,5.457,5.461,5.544,5.638,5.688,5.688,5.714,5.77,5.741,5.722,8.045,8.069,8.103,5.103,5.096,8.189,8.209,8.245,8.28,8.292,8.327,8.32,8.372,8.445,8.447,4.732,4.707,4.686,4.69,4.683,4.647,4.606,4.576,4.592,4.589,8.832,8.859,8.884,8.917,8.948,60,60,60,60,60,60,60,60,60,60,4.274,4.274,4.267,60,60,60,60,60,60,60,60,60,60,60,3.601,3.589,3.572,3.557,3.542,3.516,3.519,3.516,3.511,3.482,3.473,3.448,3.447,3.427,3.433,3.412,3.421,3.401,3.389,3.36,3.358,3.343,3.362,3.341,3.336,3.323,3.311,3.297,3.29,3.271,3.282,3.267,3.266,3.247,3.246,3.227,3.217,3.211,3.215,3.194,3.203,3.185,3.182,3.161,3.162,3.143,3.151,3.137,3.139,3.124,3.109,3.102,3.112,3.111,3.111,3.095,3.103,3.092,3.086,3.06,3.07,3.06,3.06,3.055,3.059,3.038,3.035,3.013,3.018,3.005,3.023,3.01,3.01,2.999,2.993,2.976,2.987,2.976,2.982,2.969,2.972,2.952,2.959,2.937,2.95,2.937,2.944,2.929,2.939,2.919,2.911,2.911,2.91,2.9,2.91,2.915,2.909,2.874,2.87,2.861,2.865,2.865,2.881,2.86,2.866,2.849,2.847,2.841,2.843,2.845,2.851,2.842,2.847,2.83,2.821,2.822,2.826,2.833,2.833,2.821,2.83,2.816,2.808,2.799,2.809,2.802,2.809,2.81,2.806,2.796,2.798,2.794,2.794,2.79,2.803,2.797,2.795,2.78,2.786,2.779,2.787,2.78,2.788,2.793,2.798,2.778,2.773,2.777,2.79,2.783,2.786,2.785,2.797,2.77,2.779,2.774,2.779,2.781,2.794,2.78,2.783,2.78,2.771,2.773,2.771,2.784,2.784,2.791,2.782,2.779,2.842,3.09,3.147,3.164,3.146,3.145,3.126,3.114,3.094,3.108,3.116,3.125,3.146,60,60,60,60,60,60,60,60,60,60,60,60,60,60,60,60,60,60,60,60,60,60,60,60,60,60,60,3.28,3.254,3.254,3.251,3.291,60,60,60,60,60,60,60,60,60,60,60,60,60,2.315,2.308,2.277,2.26,2.232,2.23,2.219,2.222,2.221,2.218,2.227,2.223,2.238,2.232,2.248,2.248,2.275,2.282,2.302,2.314,2.339,2.352,2.387,2.436,2.457,3.41,3.398,3.396,3.413,3.426,60,60,60,60,60,60,60,60,60,60,60,60,60,60,60,60,60,60,60,60,60,3.678,3.657,3.655,3.683,60,60,60,60,60,60,60,60,60,60,60,60,60,60,60,4.208,4.205,4.198,4.191,4.196,4.072,3.906,3.878,3.885,3.901,3.956,4.004,4,3.98,3.946,3.93,3.903,3.915,3.884,3.879,3.853,3.836,3.809,3.806,3.784,3.783,3.764,3.761,3.784,3.773,3.792,3.809,3.83,3.842,3.868,3.881,3.901,3.905,3.919,3.941,3.966,3.98,4.006,4.018,4.03,4.044
6.453,6.451,6.478,6.472,6.486,6.493,6.491,6.471,6.485,6.505,6.516,6.518,6.534,6.538,6.54,6.54,6.539,6.544,6.563,6.567,6.496,6.356,6.352,6.36,6.368,6.362,6.381,6.403,6.409,6.419,6.419,6.455,6.654,6.675,6.697,6.7,6.713,6.721,6.727,6.723,6.736,6.749,6.758,6.766,6.798,6.802,6.803,6.813,6.821,6.835,6.857,6.86,6.884,6.887,6.897,6.903,6.923,6.932,6.95,6.967,6.991,6.959,6.882,6.814,6.747,6.687,6.642,6.575,6.523,6.455,6.401,6.326,6.277,6.225,6.181,6.128,6.081,6.019,5.975,5.915,5.878,5.815,5.788,5.741,5.703,5.648,5.616,5.555,5.526,5.484,5.457,5.42,5.441,5.439,5.46,5.469,5.478,5.486,5.505,5.534,5.543,5.548,5.561,5.577,5.56,5.49,5.46,5.516,5.622,5.669,5.716,5.748,5.755,5.766,5.762,8.057,8.088,8.072,8.135,5.113,5.119,8.226,8.241,8.303,8.331,8.344,8.37,8.419,8.439,8.48,4.75,4.736,4.716,4.705,4.715,4.695,4.649,4.6,4.595,4.616,4.651,8.888,8.932,8.943,8.957,8.988,60,60,9.108,60,60,9.27,60,60,60,4.267,4.303,4.279,60,60,60,60,60,60,60,60,60,60,60,3.644,3.623,3.604,3.601,3.569,3.562,3.542,3.549,3.538,3.52,3.519,3.503,3.471,3.463,3.448,3.452,3.439,3.447,3.436,3.414,3.391,3.39,3.372,3.373,3.371,3.369,3.342,3.334,3.316,3.3,3.305,3.311,3.295,3.296,3.274,3.265,3.254,3.245,3.236,3.238,3.232,3.233,3.208,3.195,3.178,3.185,3.178,3.176,3.165,3.173,3.156,3.147,3.13,3.147,3.14,3.137,3.121,3.127,3.102,3.093,3.1,3.089,3.081,3.096,3.08,3.08,3.061,3.059,3.044,3.052,3.039,3.037,3.037,3.047,3.016,3.02,3.007,3.013,3,3.009,3.002,3.004,2.984,2.972,2.969,2.973,2.969,2.968,2.957,2.966,2.943,2.941,2.942,2.945,2.945,2.942,2.938,2.914,2.906,2.905,2.889,2.9,2.895,2.91,2.897,2.895,2.875,2.879,2.865,2.881,2.868,2.876,2.866,2.866,2.851,2.854,2.84,2.853,2.856,2.869,2.853,2.86,2.829,2.843,2.831,2.851,2.844,2.845,2.836,2.836,2.825,2.823,2.815,2.819,2.83,2.841,2.824,2.821,2.818,2.817,2.807,2.824,2.825,2.838,2.821,2.812,2.807,2.81,2.807,2.822,2.812,2.813,2.814,2.82,2.806,2.806,2.812,2.825,2.82,2.821,2.824,2.806,2.814,2.804,2.817,2.813,2.821,2.814,2.815,2.835,3.014,3.166,3.184,3.177,3.185,3.17,3.158,3.129,3.13,3.127,3.151,3.195,60,60,60,60,60,60,60,60,60,60,60,60,60,60,60,60,60,60,60,60,60,60,60,60,60,60,60,3.277,3.271,3.279,3.262,60,60,60,60,60,60,60,60,60,60,60,60,60,2.322,2.324,2.313,2.293,2.271,2.251,2.265,2.257,2.26,2.259,2.263,2.258,2.275,2.268,2.273,2.291,2.291,2.309,2.326,2.352,2.37,2.4,2.415,2.444,2.557,3.432,3.443,3.443,3.449,3.446,3.494,60,60,60,60,60,60,60,60,60,60,60,60,60,60,60,60,60,60,60,60,60,3.72,3.698,3.702,60,60,60,60,60,60,60,60,60,60,60,60,60,60,60,60,4.216,4.167,4.233,4.215,4.151,3.95,3.92,3.902,3.926,3.97,4.023,4.029,4.02,3.988,3.972,3.941,3.929,3.921,3.897,3.877,3.874,3.857,3.843,3.8,3.796,3.787,3.777,3.803,3.821,3.839,3.832,3.861,3.857,3.886,3.898,3.926,3.933,3.968,3.966,3.981,3.995,4.029,4.036,4.071,4.079
6.462,6.465,6.45,6.456,6.454,6.473,6.475,6.495,6.493,6.503,6.499,6.499,6.509,6.517,6.504,6.529,6.542,6.562,6.551,6.55,6.543,6.569,6.521,6.372,6.36,6.38,6.37,6.384,6.373,6.389,6.406,6.43,6.423,6.464,6.649,6.679,6.68,6.693,6.7,6.731,6.735,6.749,6.747,6.773,6.759,6.778,6.792,6.815,6.813,6.831,6.829,6.846,6.849,6.865,6.875,6.893,6.912,6.93,6.928,6.939,6.948,6.968,6.981,6.972,6.904,6.838,6.759,6.701,6.631,6.588,6.524,6.474,6.414,6.36,6.294,6.24,6.181,6.142,6.093,6.051,5.996,5.943,5.883,5.846,5.795,5.758,5.72,5.679,5.629,5.601,5.541,5.505,5.47,5.435,5.443,5.464,5.468,5.491,5.482,5.505,5.514,5.54,5.549,5.57,5.579,5.605,5.583,5.509,5.464,5.487,5.602,5.699,5.733,5.741,5.765,5.775,5.727,8.08,8.105,8.103,8.164,5.152,5.135,8.229,8.273,8.324,8.347,8.327,8.431,8.452,8.444,8.492,4.746,4.758,4.746,4.745,4.742,4.731,4.679,4.63,4.598,4.623,4.633,8.907,8.949,9.01,60,9.032,60,60,9.175,9.208,60,60,60,60,60,60,4.349,4.335,4.352,60,60,60,60,60,60,60,60,60,60,60,3.659,3.635,3.633,3.613,3.591,3.579,3.56,3.564,3.549,3.539,3.519,3.526,3.503,3.487,3.469,3.463,3.458,3.446,3.436,3.441,3.428,3.403,3.385,3.381,3.387,3.383,3.361,3.364,3.358,3.332,3.317,3.315,3.314,3.31,3.293,3.295,3.276,3.27,3.249,3.252,3.244,3.245,3.236,3.229,3.206,3.202,3.197,3.183,3.182,3.193,3.178,3.174,3.169,3.167,3.153,3.149,3.147,3.151,3.138,3.138,3.124,3.109,3.098,3.108,3.093,3.098,3.094,3.1,3.07,3.07,3.058,3.056,3.051,3.055,3.048,3.064,3.032,3.027,3.026,3.027,3.019,3.031,3.017,3.017,2.991,3.004,2.989,2.995,2.996,2.989,2.975,2.991,2.966,2.963,2.948,2.957,2.948,2.949,2.936,2.938,2.932,2.924,2.916,2.92,2.926,2.922,2.91,2.915,2.892,2.902,2.899,2.904,2.898,2.902,2.901,2.901,2.877,2.885,2.874,2.877,2.888,2.882,2.878,2.873,2.876,2.864,2.861,2.861,2.867,2.861,2.878,2.863,2.849,2.848,2.856,2.85,2.864,2.858,2.863,2.843,2.856,2.842,2.852,2.842,2.867,2.853,2.858,2.847,2.839,2.843,2.848,2.843,2.849,2.846,2.862,2.858,2.846,2.828,2.848,2.85,2.856,2.843,2.862,2.858,2.849,2.846,2.85,2.871,3.051,3.212,3.225,3.21,3.202,3.196,3.177,3.174,3.175,3.182,3.187,3.226,60,60,60,60,60,60,60,60,60,60,60,60,60,60,60,60,60,60,60,60,60,60,60,60,60,60,60,3.309,3.314,3.307,3.336,60,60,60,60,60,60,60,60,60,60,60,60,2.389,2.365,2.351,2.339,2.297,2.291,2.293,2.295,2.289,2.297,2.289,2.294,2.301,2.308,2.31,2.325,2.333,2.34,2.353,2.372,2.388,2.429,2.454,2.487,2.582,3.489,3.469,3.465,3.48,3.455,3.477,60,60,60,60,60,60,60,60,60,60,60,60,60,60,60,60,60,60,60,60,60,3.739,3.718,3.75,60,60,60,60,60,60,60,60,60,60,60,60,60,60,60,60,4.277,4.215,4.239,4.249,4.167,3.968,3.932,3.942,3.961,4.02,4.047,4.064,4.029,4.005,3.989,3.978,3.955,3.938,3.933,3.913,3.893,3.857,3.858,3.828,3.831,3.812,3.822,3.837,3.834,3.846,3.862,3.876,3.905,3.923,3.934,3.961,3.969,3.98,3.992,4.024,4.029,4.063,4.07,4.107,4.102
6.44,6.449,6.456,6.47,6.464,6.478,6.477,6.471,6.468,6.486,6.487,6.498,6.509,6.533,6.518,6.525,6.516,6.538,6.537,6.55,6.562,6.577,6.567,6.563,6.497,6.365,6.364,6.376,6.388,6.395,6.4,6.406,6.397,6.416,6.427,6.48,6.673,6.707,6.701,6.709,6.712,6.725,6.731,6.756,6.767,6.787,6.778,6.792,6.793,6.809,6.82,6.839,6.849,6.863,6.861,6.885,6.886,6.906,6.913,6.938,6.952,6.972,6.965,6.985,6.976,6.963,6.896,6.844,6.766,6.704,6.638,6.582,6.517,6.464,6.406,6.357,6.301,6.249,6.186,6.15,6.085,6.041,5.997,5.965,5.905,5.866,5.805,5.765,5.718,5.687,5.647,5.608,5.559,5.533,5.476,5.449,5.449,5.469,5.474,5.5,5.506,5.539,5.522,5.544,5.555,5.58,5.589,5.62,5.612,5.523,5.477,5.513,5.642,5.689,5.726,5.74,5.786,5.787,5.794,8.07,8.092,8.143,8.189,5.168,5.169,8.294,8.285,8.358,8.342,8.386,8.441,8.475,8.503,8.526,8.535,4.776,4.756,4.752,4.759,4.753,4.705,4.652,4.622,4.637,4.64,8.956,8.979,8.998,60,9.063,60,9.17,9.234,60,60,60,60,60,60,60,4.345,4.338,4.356,60,60,60,60,60,60,60,60,60,60,60,3.66,3.65,3.644,3.65,3.617,3.618,3.596,3.577,3.572,3.56,3.554,3.539,3.542,3.534,3.51,3.489,3.491,3.464,3.465,3.461,3.453,3.434,3.435,3.414,3.407,3.395,3.397,3.385,3.376,3.367,3.349,3.334,3.339,3.329,3.322,3.319,3.319,3.302,3.287,3.266,3.261,3.266,3.265,3.256,3.251,3.241,3.225,3.211,3.213,3.199,3.205,3.202,3.216,3.207,3.192,3.176,3.171,3.155,3.165,3.173,3.164,3.145,3.144,3.133,3.124,3.119,3.128,3.121,3.12,3.104,3.098,3.091,3.085,3.085,3.082,3.071,3.08,3.064,3.059,3.038,3.052,3.046,3.05,3.05,3.041,3.021,3.024,3.01,3.02,3.012,3.019,3.01,3,2.983,2.988,2.982,2.983,2.963,2.968,2.969,2.972,2.951,2.955,2.937,2.952,2.943,2.946,2.951,2.936,2.928,2.929,2.929,2.929,2.927,2.927,2.923,2.925,2.913,2.91,2.905,2.913,2.911,2.915,2.899,2.901,2.892,2.902,2.9,2.895,2.893,2.911,2.898,2.9,2.889,2.889,2.878,2.892,2.892,2.897,2.887,2.887,2.869,2.871,2.87,2.887,2.887,2.889,2.888,2.883,2.87,2.876,2.867,2.884,2.884,2.894,2.879,2.874,2.871,2.872,2.878,2.894,2.882,2.891,2.895,2.889,2.873,2.932,3.147,3.249,3.251,3.247,3.235,3.236,3.205,3.197,3.202,3.225,3.243,3.257,60,60,60,60,60,60,60,60,60,60,60,60,60,60,60,60,60,60,60,60,60,60,60,60,60,60,3.339,3.358,3.35,3.369,60,60,60,60,60,60,60,60,60,60,60,60,2.41,2.395,2.379,2.349,2.355,2.342,2.314,2.314,2.311,2.329,2.326,2.339,2.338,2.356,2.339,2.351,2.362,2.384,2.392,2.418,2.448,2.469,2.499,2.524,2.639,3.517,3.509,3.498,3.509,3.5,3.559,60,60,60,60,60,60,60,60,60,60,60,60,60,60,60,60,60,60,60,60,3.778,3.748,3.75,3.755,60,60,60,60,60,60,60,60,60,60,60,60,60,60,60,4.309,4.253,4.279,4.283,4.266,4.075,3.972,3.954,3.976,4.007,4.068,4.086,4.076,4.059,4.042,4.002,3.997,3.967,3.962,3.943,3.928,3.91,3.9,3.862,3.859,3.827,3.825,3.857,3.867,3.892,3.888,3.908,3.918,3.943,3.953,3.978,4,4.013,4.013,4.037,4.057,4.069,4.088,4.12,4.149,4.162
6.439,6.434,6.446,6.454,6.457,6.46,6.481,6.475,6.473,6.47,6.471,6.487,6.503,6.521,6.523,6.526,6.518,6.527,6.537,6.547,6.548,6.57,6.573,6.58,6.557,6.558,6.438,6.373,6.377,6.389,6.394,6.401,6.394,6.421,6.418,6.443,6.441,6.534,6.706,6.698,6.704,6.711,6.725,6.742,6.759,6.761,6.783,6.778,6.794,6.804,6.812,6.822,6.843,6.853,6.872,6.866,6.889,6.889,6.902,6.92,6.947,6.954,6.982,6.965,6.984,6.992,6.998,6.94,6.876,6.815,6.746,6.674,6.635,6.56,6.507,6.448,6.402,6.348,6.301,6.236,6.187,6.133,6.092,6.035,5.997,5.95,5.917,5.85,5.818,5.761,5.732,5.686,5.646,5.593,5.578,5.516,5.48,5.45,5.478,5.476,5.508,5.518,5.537,5.53,5.547,5.566,5.581,5.596,5.623,5.635,5.592,5.51,5.51,5.557,5.691,5.752,5.76,5.774,5.809,5.79,7.816,7.937,8.149,8.186,8.248,5.18,5.186,8.292,8.328,8.368,8.387,8.441,8.479,8.52,8.516,8.546,4.81,4.782,4.78,4.772,4.777,4.781,4.697,4.66,4.647,4.658,4.694,60,9.08,9.064,9.086,9.152,60,9.217,60,9.291,60,60,60,60,60,4.363,4.367,4.363,60,60,60,60,60,60,60,60,60,60,60,60,3.687,3.678,3.667,3.669,3.651,3.643,3.615,3.597,3.599,3.576,3.582,3.57,3.564,3.538,3.531,3.514,3.51,3.496,3.493,3.488,3.483,3.463,3.451,3.43,3.419,3.409,3.421,3.413,3.409,3.396,3.371,3.362,3.36,3.358,3.351,3.338,3.34,3.323,3.312,3.294,3.295,3.272,3.292,3.281,3.288,3.249,3.248,3.24,3.241,3.234,3.228,3.228,3.238,3.212,3.214,3.205,3.198,3.194,3.194,3.185,3.192,3.164,3.169,3.152,3.151,3.147,3.153,3.148,3.152,3.133,3.125,3.11,3.11,3.11,3.118,3.103,3.11,3.08,3.084,3.073,3.071,3.074,3.077,3.071,3.074,3.062,3.041,3.038,3.044,3.036,3.041,3.038,3.047,3.024,3.01,2.992,3.003,3.004,3,2.997,3.001,2.986,2.982,2.97,2.97,2.977,2.986,2.971,2.981,2.95,2.96,2.946,2.955,2.946,2.959,2.953,2.958,2.946,2.941,2.933,2.941,2.941,2.948,2.941,2.937,2.927,2.934,2.913,2.926,2.925,2.928,2.917,2.944,2.917,2.922,2.906,2.923,2.922,2.92,2.914,2.926,2.91,2.91,2.9,2.919,2.909,2.927,2.909,2.908,2.908,2.916,2.913,2.92,2.917,2.924,2.921,2.926,2.907,2.909,2.907,2.926,2.918,2.928,2.919,2.942,3.041,3.257,3.269,3.287,3.279,3.277,3.254,3.241,3.23,3.23,3.242,3.281,60,60,60,60,60,60,60,60,60,60,60,60,60,60,60,60,60,60,60,60,60,60,60,60,60,3.95,3.391,3.378,3.387,3.386,3.477,60,60,60,60,60,60,60,60,60,60,60,2.458,2.419,2.385,2.36,2.37,2.371,2.366,2.356,2.363,2.34,2.36,2.359,2.372,2.379,2.399,2.398,2.404,2.395,2.434,2.445,2.492,2.516,2.556,2.603,2.563,3.533,3.522,3.523,3.535,3.553,3.626,60,60,60,60,60,60,60,60,60,60,60,60,60,60,60,60,60,60,60,60,3.798,3.776,3.784,60,60,60,60,60,60,60,60,60,60,60,60,60,60,60,60,4.348,4.274,4.295,4.298,4.219,4.03,3.998,4.006,4.03,4.067,4.102,4.103,4.092,4.068,4.057,4.033,4.022,3.974,3.97,3.938,3.94,3.919,3.907,3.882,3.883,3.852,3.86,3.868,3.901,3.915,3.939,3.955,3.974,3.969,3.993,3.998,4.033,4.053,4.073,4.082,4.112,4.105,4.135,4.134,4.165,4.192
6.42,6.443,6.445,6.458,6.457,6.471,6.453,6.473,6.469,6.471,6.482,6.493,6.5,6.525,6.498,6.51,6.507,6.52,6.529,6.545,6.541,6.56,6.551,6.57,6.562,6.575,6.586,6.566,6.405,6.379,6.372,6.382,6.399,6.403,6.417,6.429,6.436,6.455,6.466,6.642,6.699,6.72,6.724,6.729,6.744,6.775,6.765,6.78,6.778,6.797,6.806,6.825,6.829,6.851,6.847,6.87,6.862,6.889,6.902,6.916,6.929,6.957,6.947,6.966,6.973,6.996,7.007,7.018,6.989,6.926,6.84,6.778,6.719,6.671,6.602,6.553,6.492,6.449,6.384,6.325,6.268,6.237,6.178,6.136,6.084,6.034,5.982,5.933,5.888,5.845,5.798,5.778,5.732,5.688,5.629,5.601,5.561,5.527,5.485,5.486,5.499,5.506,5.504,5.525,5.53,5.571,5.586,5.603,5.608,5.61,5.638,5.637,5.583,5.526,5.55,5.64,5.738,5.76,5.782,5.809,5.803,5.834,7.879,8.089,8.191,8.247,5.163,5.161,8.311,8.343,8.393,8.416,8.451,8.447,8.494,8.511,8.555,8.635,4.819,4.824,4.796,4.791,4.778,4.768,4.701,4.686,4.677,4.698,4.746,9.042,9.067,9.099,60,60,9.246,60,60,60,60,60,60,60,60,4.399,4.401,4.355,60,60,60,60,60,60,60,60,60,60,60,60,3.725,3.71,3.687,3.685,3.66,3.65,3.649,3.643,3.63,3.617,3.591,3.585,3.575,3.558,3.57,3.542,3.541,3.529,3.517,3.495,3.486,3.485,3.485,3.474,3.467,3.452,3.448,3.425,3.419,3.409,3.414,3.406,3.396,3.382,3.379,3.346,3.353,3.352,3.348,3.334,3.339,3.327,3.308,3.291,3.294,3.278,3.284,3.272,3.28,3.262,3.246,3.251,3.251,3.239,3.245,3.242,3.246,3.224,3.218,3.208,3.205,3.205,3.203,3.195,3.204,3.174,3.175,3.153,3.169,3.165,3.168,3.165,3.159,3.136,3.144,3.117,3.126,3.125,3.132,3.114,3.123,3.098,3.106,3.081,3.078,3.084,3.102,3.081,3.084,3.077,3.062,3.057,3.061,3.052,3.058,3.033,3.038,3.018,3.016,3.014,3.026,3.011,3.023,3.016,3.016,2.996,3.001,2.997,3.005,2.986,3.004,2.998,2.994,2.977,2.981,2.966,2.984,2.98,2.984,2.972,2.974,2.971,2.964,2.96,2.965,2.966,2.971,2.964,2.957,2.952,2.955,2.941,2.959,2.957,2.964,2.952,2.956,2.932,2.947,2.946,2.958,2.947,2.956,2.953,2.954,2.946,2.941,2.937,2.954,2.95,2.956,2.956,2.955,2.944,2.934,2.935,2.964,2.955,2.96,2.957,2.958,2.947,2.957,3.016,3.261,3.319,3.326,3.307,3.299,3.283,3.278,3.272,3.268,3.275,3.328,3.362,60,60,60,60,60,60,60,60,60,60,60,60,60,60,60,60,60,60,60,60,60,60,60,60,4.003,3.456,3.404,3.411,3.425,60,60,60,60,60,60,60,60,60,60,60,2.499,2.459,2.437,2.399,2.421,2.408,2.397,2.389,2.392,2.381,2.389,2.389,2.412,2.414,2.435,2.437,2.431,2.438,2.451,2.484,2.509,2.558,2.573,2.618,2.707,3.582,3.557,3.568,3.564,3.58,3.602,60,60,60,60,60,60,60,60,60,60,60,60,60,60,60,60,60,60,60,60,3.81,3.811,3.823,3.835,60,60,60,60,60,60,60,60,60,60,60,60,60,60,60,60,4.351,4.276,4.303,4.28,4.08,4.035,4.036,4.045,4.087,4.125,4.136,4.107,4.097,4.085,4.071,4.045,4.025,3.997,3.982,3.965,3.955,3.941,3.909,3.911,3.888,3.889,3.908,3.919,3.938,3.965,3.974,3.994,3.997,4.019,4.022,4.056,4.073,4.101,4.103,4.124,4.137,4.156,4.168,4.192,4.216,4.244
6.447,6.44,6.445,6.441,6.463,6.464,6.473,6.478,6.477,6.478,6.49,6.487,6.511,6.496,6.513,6.525,6.521,6.522,6.529,6.535,6.557,6.561,6.58,6.579,6.575,6.572,6.597,6.588,6.556,6.402,6.396,6.387,6.402,6.398,6.421,6.422,6.439,6.442,6.474,6.505,6.696,6.713,6.729,6.736,6.754,6.759,6.792,6.789,6.793,6.779,6.81,6.82,6.85,6.846,6.872,6.871,6.879,6.888,6.911,6.915,6.942,6.947,6.971,6.97,6.984,6.983,7.006,7.025,7.034,6.974,6.907,6.829,6.774,6.712,6.661,6.602,6.553,6.484,6.441,6.385,6.328,6.269,6.221,6.172,6.148,6.088,6.047,5.978,5.943,5.887,5.853,5.807,5.777,5.736,5.701,5.644,5.607,5.558,5.529,5.504,5.505,5.512,5.534,5.537,5.557,5.562,5.591,5.598,5.629,5.628,5.656,5.656,5.645,5.556,5.552,5.575,5.697,5.792,5.789,5.804,5.832,5.86,7.878,8.053,8.21,8.259,8.279,5.201,5.203,8.363,8.395,8.434,8.45,8.506,8.543,8.55,8.589,8.63,8.627,4.856,4.816,4.832,4.824,4.804,4.764,4.715,4.69,4.705,4.718,4.778,9.116,9.142,60,9.213,9.307,60,9.375,60,60,60,60,60,60,60,4.416,4.419,4.411,60,60,60,60,60,60,60,60,60,60,60,3.732,3.752,3.726,3.727,3.694,3.689,3.671,3.672,3.656,3.657,3.646,3.634,3.608,3.597,3.585,3.585,3.566,3.567,3.55,3.56,3.519,3.52,3.499,3.502,3.496,3.494,3.472,3.471,3.455,3.448,3.424,3.432,3.414,3.42,3.41,3.408,3.386,3.377,3.364,3.367,3.362,3.363,3.343,3.347,3.324,3.318,3.299,3.305,3.296,3.297,3.294,3.3,3.272,3.282,3.264,3.271,3.256,3.262,3.256,3.252,3.239,3.234,3.215,3.222,3.221,3.232,3.216,3.21,3.184,3.191,3.173,3.183,3.17,3.174,3.161,3.181,3.156,3.147,3.138,3.148,3.14,3.147,3.136,3.128,3.119,3.113,3.108,3.113,3.111,3.115,3.098,3.099,3.087,3.084,3.069,3.071,3.059,3.072,3.059,3.053,3.042,3.044,3.041,3.047,3.037,3.049,3.037,3.028,3.017,3.027,3.02,3.023,3.017,3.034,3.02,3.01,3.008,3.006,3.001,3.012,3.003,3.009,2.992,2.998,3,2.994,2.987,2.996,2.989,2.998,2.993,2.995,2.981,2.988,2.984,2.991,2.984,2.993,2.989,2.978,2.965,2.975,2.984,2.985,2.979,2.996,2.984,2.98,2.965,2.979,2.989,2.99,2.982,2.993,2.978,2.987,2.971,2.982,2.974,2.993,2.998,2.994,3.015,3.229,3.329,3.343,3.34,3.33,3.333,3.323,3.307,3.306,3.302,3.334,3.38,60,60,60,60,60,60,60,60,60,60,60,60,60,60,60,60,60,60,60,60,4.046,4.007,3.993,3.994,3.99,3.463,3.462,3.444,3.414,60,60,60,60,60,60,60,60,60,60,60,2.528,2.501,2.466,2.436,2.428,2.419,2.422,2.422,2.414,2.443,2.434,2.436,2.441,2.451,2.455,2.476,2.478,2.497,2.509,2.539,2.565,2.591,2.629,2.737,3.61,3.606,3.588,3.583,3.59,3.615,3.667,60,60,60,60,60,60,60,60,60,60,60,60,60,60,60,60,60,60,60,60,3.845,3.837,3.858,60,60,60,60,60,60,60,60,60,60,60,60,60,60,60,60,4.4,4.341,4.317,4.333,4.156,4.056,4.046,4.061,4.094,4.153,4.164,4.156,4.129,4.106,4.078,4.07,4.048,4.039,4.012,3.995,3.98,3.968,3.929,3.923,3.91,3.923,3.942,3.963,3.964,3.986,3.992,4.014,4.025,4.057,4.068,4.088,4.085,4.116,4.125,4.143,4.159,4.187,4.207,4.228,4.235,4.261,4.261,4.293
6.455,6.448,6.437,6.443,6.454,6.476,6.477,6.495,6.494,6.494,6.481,6.505,6.501,6.521,6.518,6.539,6.53,6.533,6.534,6.555,6.55,6.578,6.575,6.581,6.588,6.598,6.586,6.599,6.55,6.411,6.395,6.412,6.413,6.42,6.412,6.439,6.447,6.462,6.472,6.526,6.701,6.733,6.742,6.742,6.753,6.776,6.797,6.804,6.801,6.812,6.821,6.828,6.841,6.868,6.872,6.898,6.907,6.9,6.913,6.934,6.945,6.966,6.978,6.998,6.994,7.017,7.027,7.042,7.034,6.978,6.901,6.85,6.778,6.722,6.654,6.607,6.55,6.504,6.444,6.399,6.332,6.283,6.232,6.192,6.142,6.101,6.041,6.004,5.955,5.909,5.857,5.83,5.783,5.754,5.715,5.668,5.618,5.591,5.541,5.523,5.516,5.538,5.554,5.57,5.564,5.587,5.596,5.622,5.636,5.662,5.66,5.694,5.656,5.581,5.564,5.619,5.722,5.808,5.824,5.817,5.865,5.836,7.924,8.114,8.286,8.244,8.286,5.238,5.183,8.389,8.424,8.47,8.486,8.522,8.578,8.585,8.607,8.645,8.714,4.86,4.838,4.849,4.85,4.84,4.793,4.726,4.704,4.732,4.739,60,9.145,60,9.187,60,60,60,60,60,60,60,60,60,60,60,4.454,4.443,4.472,60,60,60,60,60,60,60,60,60,60,60,3.788,3.764,3.754,3.757,3.736,3.718,3.701,3.696,3.682,3.667,3.653,3.653,3.658,3.62,3.613,3.594,3.589,3.581,3.593,3.571,3.565,3.542,3.53,3.515,3.519,3.513,3.507,3.5,3.496,3.466,3.455,3.448,3.46,3.444,3.439,3.437,3.414,3.397,3.392,3.384,3.394,3.384,3.379,3.363,3.356,3.341,3.339,3.321,3.328,3.323,3.316,3.315,3.309,3.305,3.298,3.29,3.301,3.28,3.292,3.28,3.263,3.253,3.257,3.245,3.248,3.238,3.245,3.229,3.223,3.198,3.209,3.212,3.216,3.203,3.208,3.193,3.188,3.173,3.173,3.171,3.175,3.166,3.175,3.162,3.141,3.137,3.146,3.139,3.143,3.138,3.133,3.131,3.118,3.098,3.095,3.09,3.102,3.088,3.099,3.086,3.074,3.071,3.076,3.067,3.077,3.074,3.077,3.073,3.052,3.046,3.052,3.044,3.062,3.054,3.052,3.051,3.04,3.035,3.028,3.043,3.041,3.041,3.044,3.032,3.021,3.029,3.012,3.031,3.018,3.023,3.032,3.032,3.011,3.013,3.01,3.019,3.02,3.023,3.021,3.023,3.005,3.008,3.012,3.019,3.012,3.018,3.012,3.024,3,3.009,3.001,3.017,3.023,3.018,3.016,3.028,3.009,3.01,3.008,3.019,3.02,3.085,3.31,3.381,3.376,3.37,3.355,3.365,3.346,3.348,3.341,3.347,3.367,3.434,60,60,60,60,60,60,60,60,60,60,60,60,60,60,60,60,60,60,60,60,60,3.998,4.065,4.031,3.909,3.501,3.481,3.481,3.492,60,60,60,60,60,60,60,60,60,60,2.557,2.529,2.503,2.476,2.485,2.457,2.456,2.439,2.459,2.461,2.471,2.473,2.482,2.487,2.484,2.501,2.499,2.524,2.552,2.584,2.615,2.643,2.657,2.783,3.624,3.648,3.612,3.628,3.636,3.643,3.673,60,60,60,60,60,60,60,60,60,60,60,60,60,60,60,60,60,60,60,60,3.885,3.861,3.874,60,60,60,60,60,60,60,60,60,60,60,60,60,60,60,60,4.387,4.361,4.333,4.377,4.159,4.088,4.087,4.087,4.105,4.166,4.193,4.174,4.158,4.14,4.127,4.088,4.076,4.042,4.037,4.014,4.009,3.985,3.972,3.933,3.927,3.929,3.97,3.976,4.002,4.011,4.027,4.032,4.063,4.06,4.096,4.109,4.132,4.137,4.157,4.167,4.19,4.201,4.215,4.236,4.279,4.291,4.303,4.305,4.342,4.35
6.459,6.463,6.468,6.452,6.467,6.459,6.476,6.476,6.496,6.489,6.499,6.505,6.513,6.508,6.518,6.53,6.545,6.551,6.553,6.543,6.558,6.555,6.579,6.583,6.601,6.595,6.614,6.601,6.597,6.514,6.41,6.41,6.421,6.424,6.436,6.444,6.437,6.449,6.471,6.48,6.559,6.732,6.758,6.751,6.765,6.77,6.784,6.789,6.808,6.827,6.843,6.826,6.847,6.859,6.879,6.885,6.914,6.914,6.936,6.932,6.947,6.943,6.984,6.999,7.018,7.025,7.046,7.046,7.057,7.021,6.953,6.897,6.841,6.774,6.731,6.646,6.594,6.55,6.497,6.438,6.402,6.348,6.296,6.24,6.193,6.137,6.093,6.049,6.019,5.966,5.927,5.875,5.832,5.785,5.749,5.711,5.684,5.633,5.607,5.556,5.534,5.528,5.556,5.57,5.589,5.594,5.63,5.615,5.638,5.648,5.673,5.688,5.716,5.67,5.599,5.575,5.634,5.752,5.823,5.826,5.868,5.877,5.869,8.041,8.224,8.303,8.294,8.326,5.254,5.237,8.448,8.437,8.512,8.513,8.573,8.647,8.651,8.638,8.74,4.876,4.872,4.857,4.86,4.871,4.855,4.825,4.754,4.744,4.75,4.76,9.16,9.206,9.265,60,60,60,60,60,60,60,60,60,60,60,4.501,4.463,4.455,4.443,60,60,60,60,60,60,60,60,60,60,60,3.763,3.787,3.756,3.765,3.753,3.753,3.734,3.733,3.7,3.695,3.687,3.676,3.666,3.664,3.642,3.635,3.611,3.612,3.596,3.59,3.578,3.586,3.575,3.552,3.542,3.536,3.517,3.52,3.513,3.514,3.489,3.487,3.465,3.468,3.449,3.454,3.448,3.44,3.433,3.425,3.404,3.399,3.391,3.392,3.383,3.385,3.365,3.361,3.337,3.337,3.332,3.344,3.343,3.347,3.338,3.32,3.312,3.303,3.295,3.312,3.3,3.304,3.287,3.284,3.273,3.27,3.261,3.266,3.245,3.25,3.261,3.237,3.23,3.223,3.206,3.223,3.224,3.219,3.204,3.198,3.186,3.188,3.171,3.187,3.18,3.186,3.171,3.173,3.162,3.154,3.148,3.159,3.155,3.148,3.131,3.121,3.112,3.117,3.105,3.115,3.115,3.119,3.097,3.1,3.088,3.097,3.094,3.099,3.092,3.097,3.079,3.067,3.079,3.078,3.076,3.08,3.074,3.084,3.069,3.064,3.055,3.059,3.059,3.067,3.05,3.066,3.054,3.057,3.045,3.049,3.045,3.059,3.047,3.055,3.05,3.039,3.038,3.048,3.045,3.053,3.049,3.058,3.036,3.046,3.033,3.039,3.04,3.056,3.046,3.049,3.04,3.039,3.037,3.038,3.038,3.055,3.055,3.061,3.035,3.061,3.129,3.364,3.414,3.415,3.396,3.405,3.387,3.368,3.351,3.361,3.388,3.403,60,60,60,60,60,60,60,60,60,60,60,60,60,60,60,60,60,60,60,60,60,60,60,4.046,4.088,3.517,3.501,3.501,3.486,60,60,60,60,60,60,60,60,60,60,2.578,2.581,2.542,2.508,2.498,2.488,2.492,2.492,2.482,2.503,2.483,2.502,2.502,2.516,2.523,2.54,2.543,2.571,2.581,2.607,2.63,2.664,2.702,2.711,3.666,3.663,3.661,3.629,3.644,3.651,3.684,60,60,60,60,60,60,60,60,60,60,60,60,60,60,60,60,60,60,60,60,3.883,3.885,3.878,60,60,60,60,60,60,60,60,60,60,60,60,60,60,60,60,4.405,4.393,4.397,4.393,4.217,4.108,4.09,4.111,4.156,4.202,4.226,4.194,4.184,4.143,4.133,4.114,4.101,4.086,4.053,4.045,4.019,4,3.978,3.965,3.963,3.98,3.986,4,4.01,4.026,4.031,4.064,4.078,4.105,4.109,4.122,4.131,4.155,4.176,4.197,4.221,4.241,4.252,4.261,4.287,4.305,4.308,4.341,4.358,4.382,4.403
6.45,6.451,6.456,6.46,6.479,6.454,6.468,6.473,6.488,6.491,6.5,6.51,6.513,6.507,6.514,6.518,6.536,6.534,6.552,6.549,6.571,6.548,6.567,6.569,6.582,6.589,6.612,6.608,6.621,6.614,6.603,6.498,6.417,6.418,6.436,6.44,6.455,6.452,6.454,6.457,6.476,6.496,6.608,6.756,6.764,6.764,6.782,6.781,6.793,6.817,6.831,6.836,6.857,6.845,6.868,6.866,6.885,6.909,6.928,6.935,6.948,6.948,6.964,6.963,7.002,7.004,7.023,7.052,7.054,7.056,7.066,7.017,6.96,6.893,6.843,6.782,6.732,6.647,6.604,6.548,6.506,6.447,6.405,6.349,6.299,6.238,6.205,6.149,6.113,6.06,6.029,5.985,5.931,5.875,5.836,5.8,5.766,5.728,5.694,5.657,5.618,5.569,5.547,5.552,5.583,5.594,5.605,5.618,5.621,5.642,5.653,5.68,5.694,5.716,5.733,5.677,5.608,5.617,5.666,5.817,5.849,5.866,5.91,5.911,5.899,8.187,8.261,8.301,8.34,5.266,5.276,5.271,8.445,8.495,8.531,8.598,8.612,8.65,8.695,8.718,8.759,4.874,4.893,4.88,4.901,4.888,4.869,4.829,4.772,4.754,4.766,4.808,60,9.228,60,60,60,60,60,60,60,60,60,60,60,60,4.505,4.491,4.497,60,60,60,60,60,60,60,60,60,60,60,60,3.798,3.813,3.794,3.792,3.778,3.782,3.756,3.735,3.732,3.713,3.712,3.7,3.695,3.677,3.671,3.637,3.639,3.626,3.64,3.626,3.62,3.598,3.595,3.567,3.568,3.557,3.559,3.539,3.543,3.53,3.521,3.495,3.486,3.483,3.497,3.48,3.478,3.46,3.445,3.438,3.438,3.427,3.424,3.408,3.42,3.398,3.391,3.379,3.371,3.361,3.375,3.373,3.379,3.371,3.351,3.346,3.347,3.337,3.343,3.329,3.332,3.319,3.317,3.292,3.303,3.29,3.298,3.283,3.289,3.283,3.269,3.252,3.254,3.248,3.266,3.243,3.252,3.233,3.229,3.219,3.223,3.214,3.217,3.21,3.216,3.203,3.193,3.195,3.19,3.184,3.188,3.184,3.179,3.15,3.149,3.14,3.149,3.141,3.143,3.131,3.154,3.133,3.139,3.117,3.122,3.123,3.13,3.119,3.132,3.11,3.11,3.092,3.107,3.111,3.11,3.103,3.109,3.083,3.095,3.082,3.096,3.097,3.1,3.087,3.1,3.075,3.079,3.072,3.085,3.082,3.084,3.074,3.082,3.072,3.072,3.075,3.078,3.075,3.085,3.081,3.086,3.057,3.074,3.061,3.063,3.078,3.071,3.092,3.077,3.068,3.057,3.07,3.073,3.079,3.065,3.081,3.074,3.077,3.077,3.208,3.415,3.446,3.435,3.431,3.425,3.404,3.387,3.4,3.406,3.425,3.478,60,60,60,60,60,60,60,60,60,60,60,60,60,60,60,60,60,60,60,60,60,60,60,60,60,3.552,3.524,3.526,3.569,60,60,60,60,60,60,60,60,60,2.583,2.617,2.586,2.552,2.538,2.533,2.525,2.535,2.528,2.541,2.537,2.53,2.538,2.545,2.551,2.569,2.578,2.605,2.604,2.635,2.665,2.698,2.797,3.7,3.68,3.69,3.686,3.663,3.657,3.68,3.698,60,60,60,60,60,60,60,60,60,60,60,60,60,60,60,60,60,60,60,60,3.912,3.915,3.917,3.902,60,60,60,60,60,60,60,60,60,60,60,60,60,60,60,4.447,4.446,4.418,4.42,4.253,4.137,4.116,4.138,4.165,4.224,4.225,4.238,4.209,4.18,4.145,4.142,4.124,4.101,4.092,4.066,4.04,4.019,4.011,3.974,4.001,4.009,4.025,4.018,4.029,4.048,4.063,4.079,4.113,4.12,4.143,4.158,4.168,4.174,4.209,4.21,4.245,4.247,4.279,4.298,4.303,4.304,4.336,4.362,4.389,4.405,4.432
6.43,6.446,6.436,6.453,6.44,6.466,6.48,6.488,6.465,6.475,6.478,6.486,6.488,6.517,6.509,6.529,6.522,6.528,6.517,6.543,6.54,6.555,6.564,6.58,6.566,6.578,6.575,6.599,6.597,6.626,6.626,6.635,6.614,6.555,6.412,6.431,6.427,6.443,6.445,6.474,6.461,6.481,6.478,6.503,6.582,6.759,6.776,6.797,6.783,6.798,6.814,6.823,6.836,6.852,6.855,6.878,6.869,6.891,6.891,6.914,6.925,6.952,6.962,6.973,6.973,6.996,7.001,7.025,7.05,7.062,7.073,7.093,7.066,7.022,6.964,6.915,6.853,6.802,6.737,6.69,6.621,6.575,6.507,6.48,6.419,6.376,6.321,6.276,6.217,6.18,6.12,6.072,6.035,6.004,5.959,5.923,5.857,5.831,5.768,5.752,5.705,5.679,5.639,5.609,5.56,5.56,5.583,5.606,5.61,5.638,5.65,5.67,5.669,5.7,5.707,5.729,5.742,5.712,5.632,5.624,5.672,5.811,5.849,5.883,5.925,5.922,5.899,8.266,8.28,8.356,8.383,8.411,5.278,5.289,8.518,8.541,8.591,8.617,8.659,8.705,8.719,8.775,8.807,4.938,4.908,4.902,4.893,4.905,4.895,4.855,4.802,4.777,4.786,4.816,60,60,60,60,60,60,60,60,60,60,60,60,60,60,4.473,4.523,4.515,60,60,60,60,60,60,60,60,60,60,60,60,3.824,3.844,3.819,3.822,3.804,3.795,3.792,3.772,3.765,3.737,3.738,3.722,3.713,3.7,3.712,3.688,3.669,3.652,3.651,3.635,3.642,3.626,3.631,3.608,3.596,3.581,3.584,3.563,3.571,3.555,3.552,3.531,3.522,3.521,3.503,3.497,3.498,3.485,3.495,3.475,3.467,3.442,3.448,3.437,3.441,3.428,3.427,3.405,3.396,3.393,3.394,3.401,3.404,3.393,3.398,3.379,3.375,3.363,3.357,3.349,3.347,3.347,3.344,3.335,3.332,3.3,3.302,3.311,3.31,3.317,3.294,3.297,3.279,3.281,3.262,3.264,3.27,3.274,3.265,3.266,3.236,3.242,3.235,3.238,3.231,3.235,3.233,3.229,3.212,3.211,3.207,3.206,3.191,3.185,3.184,3.192,3.166,3.163,3.157,3.176,3.161,3.164,3.16,3.17,3.149,3.148,3.137,3.15,3.148,3.144,3.139,3.146,3.131,3.135,3.118,3.135,3.139,3.131,3.114,3.132,3.119,3.117,3.106,3.117,3.117,3.122,3.119,3.109,3.1,3.107,3.103,3.113,3.113,3.117,3.107,3.107,3.089,3.107,3.094,3.108,3.103,3.109,3.103,3.107,3.088,3.102,3.098,3.118,3.105,3.108,3.11,3.099,3.092,3.105,3.105,3.096,3.106,3.123,3.264,3.449,3.467,3.453,3.454,3.449,3.446,3.431,3.433,3.417,3.445,3.508,60,60,60,60,60,60,60,60,60,60,60,60,60,60,60,60,60,60,60,60,60,60,60,60,3.598,3.557,3.581,3.56,60,60,60,60,60,60,60,60,60,60,2.643,2.627,2.591,2.591,2.588,2.572,2.572,2.557,2.564,2.561,2.564,2.583,2.576,2.593,2.605,2.609,2.613,2.642,2.67,2.701,2.754,2.901,3.722,3.711,3.708,3.716,3.698,3.694,3.7,3.735,3.764,60,60,60,60,60,60,60,60,60,60,60,60,60,60,60,60,60,60,60,3.961,3.957,3.945,3.967,60,60,60,60,60,60,60,60,60,60,60,60,60,60,60,60,4.449,4.407,4.42,4.471,4.172,4.152,4.166,4.19,4.227,4.26,4.253,4.225,4.203,4.197,4.166,4.161,4.133,4.116,4.076,4.06,4.038,4.034,4.019,4.015,4.023,4.024,4.041,4.054,4.077,4.085,4.106,4.123,4.152,4.142,4.171,4.17,4.207,4.22,4.253,4.251,4.284,4.279,4.305,4.314,4.347,4.364,4.392,4.404,4.435,4.432
6.431,6.453,6.439,6.432,6.441,6.458,6.462,6.471,6.47,6.49,6.488,6.482,6.48,6.503,6.492,6.515,6.522,6.538,6.525,6.541,6.529,6.534,6.546,6.573,6.584,6.586,6.575,6.591,6.588,6.606,6.614,6.621,6.642,6.638,6.634,6.569,6.434,6.422,6.443,6.439,6.471,6.475,6.479,6.484,6.496,6.505,6.576,6.754,6.786,6.796,6.803,6.799,6.814,6.822,6.847,6.854,6.865,6.877,6.89,6.894,6.906,6.92,6.939,6.95,6.978,6.981,6.98,7.002,7.02,7.024,7.057,7.07,7.09,7.099,7.099,7.048,6.983,6.921,6.885,6.82,6.77,6.704,6.649,6.585,6.545,6.48,6.449,6.396,6.354,6.293,6.225,6.185,6.143,6.102,6.061,6.014,5.985,5.928,5.889,5.84,5.805,5.768,5.75,5.693,5.664,5.618,5.581,5.574,5.61,5.622,5.647,5.648,5.681,5.687,5.686,5.706,5.714,5.751,5.763,5.74,5.66,5.637,5.679,5.824,5.875,5.899,5.916,5.95,5.931,8.283,8.321,8.352,8.395,8.428,5.316,5.289,8.512,8.545,8.558,8.634,8.669,8.749,8.766,8.804,8.823,8.859,4.937,4.928,4.914,4.952,4.935,4.89,4.839,4.789,4.81,4.801,60,60,60,60,60,60,60,60,60,60,60,60,60,60,4.592,4.534,4.552,4.543,60,60,60,60,60,60,60,60,60,60,60,60,3.868,3.845,3.854,3.838,3.819,3.804,3.786,3.786,3.764,3.772,3.755,3.746,3.73,3.721,3.703,3.694,3.672,3.686,3.667,3.664,3.664,3.658,3.626,3.617,3.607,3.609,3.596,3.602,3.595,3.582,3.546,3.555,3.545,3.546,3.535,3.533,3.515,3.504,3.496,3.497,3.478,3.476,3.468,3.47,3.451,3.455,3.429,3.425,3.412,3.427,3.432,3.441,3.423,3.403,3.393,3.405,3.398,3.391,3.372,3.378,3.375,3.357,3.347,3.355,3.353,3.349,3.344,3.349,3.325,3.329,3.314,3.322,3.297,3.318,3.298,3.3,3.284,3.29,3.28,3.271,3.275,3.278,3.266,3.272,3.264,3.262,3.24,3.252,3.243,3.247,3.233,3.227,3.212,3.201,3.198,3.206,3.199,3.205,3.202,3.203,3.194,3.192,3.185,3.177,3.173,3.191,3.183,3.184,3.171,3.17,3.153,3.156,3.152,3.175,3.174,3.168,3.155,3.154,3.152,3.145,3.14,3.151,3.144,3.155,3.156,3.141,3.131,3.135,3.127,3.145,3.142,3.148,3.136,3.144,3.126,3.133,3.143,3.142,3.132,3.146,3.141,3.135,3.125,3.133,3.13,3.138,3.133,3.134,3.135,3.127,3.137,3.12,3.132,3.138,3.152,3.159,3.28,3.468,3.495,3.485,3.491,3.496,3.477,3.457,3.448,3.455,3.474,3.526,60,60,60,60,60,60,60,60,60,60,60,60,60,60,60,60,60,60,60,60,60,60,60,60,3.63,3.595,3.594,3.609,60,60,60,60,60,60,60,60,60,60,2.658,2.662,2.644,2.625,2.632,2.621,2.609,2.606,2.6,2.609,2.615,2.633,2.638,2.658,2.653,2.668,2.685,2.72,2.775,2.852,2.838,3.76,3.746,3.738,3.739,3.742,3.719,3.737,3.746,3.771,60,60,60,60,60,60,60,60,60,60,60,60,60,60,60,60,60,60,60,60,3.977,3.99,3.991,60,60,60,60,60,60,60,60,60,60,60,60,60,60,60,60,4.472,4.445,4.43,4.419,4.207,4.186,4.185,4.21,4.232,4.283,4.265,4.263,4.244,4.228,4.2,4.179,4.139,4.121,4.114,4.098,4.081,4.055,4.048,4.04,4.034,4.042,4.063,4.076,4.1,4.113,4.135,4.143,4.153,4.165,4.185,4.202,4.232,4.236,4.268,4.281,4.298,4.311,4.336,4.347,4.373,4.388,4.415,4.424,4.443,4.454
6.426,6.428,6.45,6.443,6.465,6.437,6.439,6.449,6.475,6.469,6.477,6.479,6.491,6.487,6.503,6.494,6.508,6.51,6.528,6.522,6.547,6.538,6.538,6.535,6.555,6.567,6.584,6.582,6.578,6.578,6.6,6.595,6.623,6.627,6.644,6.652,6.651,6.615,6.495,6.431,6.459,6.459,6.474,6.476,6.478,6.488,6.501,6.503,6.529,6.697,6.783,6.812,6.807,6.809,6.816,6.835,6.856,6.869,6.872,6.888,6.88,6.906,6.913,6.931,6.944,6.964,6.971,6.998,6.993,7.001,7.021,7.048,7.053,7.08,7.1,7.12,7.107,7.086,7.013,6.961,6.903,6.857,6.795,6.756,6.676,6.631,6.573,6.517,6.474,6.438,6.38,6.334,6.273,6.243,6.176,6.145,6.097,6.063,6.014,5.979,5.914,5.892,5.847,5.812,5.776,5.736,5.699,5.659,5.616,5.604,5.608,5.632,5.647,5.664,5.686,5.695,5.706,5.715,5.74,5.759,5.79,5.782,5.722,5.668,5.687,5.764,5.865,5.916,5.946,5.962,5.952,8.297,8.333,8.429,8.405,8.435,5.293,5.34,8.581,8.592,8.668,8.643,8.692,8.725,8.796,8.833,8.872,8.89,4.959,4.961,4.943,4.956,4.945,4.943,4.873,4.846,4.837,4.839,4.867,60,60,60,60,60,60,60,60,60,60,60,60,60,60,4.548,4.545,4.548,60,60,60,60,60,60,60,60,60,60,60,60,3.876,3.891,3.871,3.869,3.853,3.848,3.836,3.82,3.796,3.785,3.778,3.767,3.761,3.751,3.747,3.744,3.723,3.697,3.695,3.69,3.694,3.671,3.673,3.663,3.652,3.622,3.623,3.616,3.629,3.606,3.597,3.581,3.571,3.563,3.555,3.55,3.554,3.542,3.545,3.53,3.51,3.488,3.495,3.498,3.495,3.476,3.479,3.458,3.461,3.437,3.457,3.45,3.458,3.451,3.452,3.43,3.431,3.409,3.407,3.398,3.409,3.398,3.405,3.386,3.391,3.365,3.361,3.356,3.376,3.357,3.364,3.349,3.343,3.323,3.329,3.325,3.326,3.327,3.334,3.312,3.298,3.293,3.296,3.285,3.292,3.295,3.297,3.275,3.275,3.268,3.263,3.247,3.255,3.245,3.252,3.232,3.232,3.216,3.23,3.225,3.225,3.224,3.215,3.216,3.193,3.205,3.197,3.206,3.208,3.214,3.202,3.203,3.18,3.19,3.189,3.191,3.185,3.191,3.186,3.185,3.175,3.173,3.165,3.185,3.178,3.184,3.18,3.172,3.155,3.166,3.167,3.18,3.17,3.178,3.161,3.148,3.161,3.155,3.167,3.168,3.178,3.172,3.176,3.163,3.173,3.151,3.164,3.168,3.177,3.171,3.164,3.158,3.158,3.153,3.17,3.25,3.492,3.539,3.525,3.514,3.509,3.501,3.491,3.491,3.488,3.513,3.535,60,60,60,60,60,60,60,60,60,60,60,60,60,60,60,60,60,60,60,60,60,60,60,60,3.59,3.621,3.61,3.636,60,60,60,60,60,60,60,60,60,60,60,2.694,2.672,2.689,2.679,2.681,2.67,2.685,2.685,2.673,2.685,2.687,2.708,2.719,2.747,2.792,2.812,2.821,2.772,3.729,3.746,3.785,3.771,3.777,3.775,3.761,3.739,3.758,3.77,3.827,60,60,60,60,60,60,60,60,60,60,60,60,60,60,60,60,60,60,60,3.963,3.994,3.99,4.015,60,60,60,60,60,60,60,60,60,60,60,60,60,60,60,4.546,4.532,4.462,4.48,4.321,4.212,4.191,4.211,4.24,4.291,4.315,4.303,4.281,4.248,4.22,4.205,4.188,4.167,4.158,4.132,4.102,4.083,4.069,4.052,4.047,4.065,4.085,4.118,4.11,4.121,4.133,4.152,4.174,4.205,4.208,4.237,4.228,4.261,4.262,4.284,4.31,4.334,4.345,4.375,4.372,4.397,4.406,4.437,4.448,4.484
6.428,6.425,6.441,6.431,6.45,6.451,6.458,6.459,6.46,6.453,6.466,6.462,6.48,6.488,6.507,6.494,6.502,6.499,6.501,6.518,6.533,6.54,6.534,6.541,6.541,6.557,6.559,6.555,6.564,6.592,6.593,6.594,6.596,6.609,6.604,6.634,6.639,6.66,6.662,6.672,6.601,6.481,6.437,6.452,6.462,6.49,6.495,6.512,6.501,6.524,6.514,6.575,6.767,6.808,6.818,6.834,6.831,6.839,6.848,6.868,6.876,6.882,6.912,6.92,6.927,6.939,6.954,6.967,6.985,7,7.022,7.022,7.029,7.045,7.061,7.074,7.103,7.119,7.138,7.121,7.073,7.013,6.959,6.89,6.856,6.8,6.75,6.677,6.618,6.578,6.517,6.477,6.438,6.381,6.338,6.286,6.248,6.175,6.139,6.097,6.076,6.024,5.986,5.942,5.895,5.841,5.812,5.777,5.75,5.706,5.671,5.632,5.63,5.63,5.656,5.66,5.695,5.704,5.727,5.731,5.75,5.748,5.787,5.801,5.784,5.71,5.704,5.708,5.85,5.917,5.937,5.989,5.983,5.977,8.348,8.412,8.436,8.497,8.485,5.35,5.363,8.613,8.697,8.692,8.703,8.73,8.773,8.818,8.868,8.899,8.963,4.99,4.97,4.964,4.98,4.977,4.948,4.878,4.867,4.862,4.861,4.912,60,9.453,60,60,60,60,60,60,60,60,60,60,60,60,4.584,4.576,4.637,60,60,60,60,60,60,60,60,60,60,60,60,3.922,3.904,3.895,3.886,3.887,3.877,3.869,3.843,3.82,3.809,3.803,3.799,3.798,3.782,3.776,3.749,3.743,3.729,3.736,3.717,3.718,3.703,3.701,3.669,3.675,3.648,3.649,3.643,3.645,3.638,3.628,3.601,3.607,3.59,3.592,3.586,3.578,3.571,3.566,3.543,3.532,3.529,3.527,3.512,3.519,3.515,3.509,3.485,3.482,3.475,3.496,3.485,3.487,3.47,3.478,3.455,3.449,3.441,3.447,3.432,3.437,3.431,3.431,3.41,3.405,3.389,3.405,3.397,3.393,3.396,3.394,3.366,3.361,3.356,3.361,3.352,3.367,3.359,3.339,3.329,3.329,3.315,3.332,3.323,3.328,3.317,3.32,3.309,3.304,3.282,3.287,3.279,3.284,3.281,3.269,3.255,3.255,3.249,3.26,3.255,3.262,3.255,3.26,3.242,3.242,3.23,3.241,3.233,3.249,3.237,3.228,3.22,3.22,3.222,3.224,3.215,3.226,3.226,3.217,3.199,3.208,3.2,3.217,3.206,3.216,3.213,3.211,3.204,3.206,3.193,3.205,3.197,3.216,3.212,3.21,3.183,3.187,3.206,3.195,3.202,3.202,3.211,3.189,3.194,3.187,3.199,3.198,3.209,3.196,3.204,3.186,3.202,3.194,3.219,3.409,3.563,3.568,3.557,3.552,3.552,3.517,3.52,3.524,3.532,3.561,60,60,60,60,60,60,60,60,60,60,60,60,60,60,60,60,60,60,60,60,60,60,60,60,3.655,3.633,3.644,3.65,60,60,60,60,60,60,60,60,60,60,60,60,2.997,2.978,2.949,2.916,2.919,2.897,2.887,2.885,2.86,2.878,2.855,2.865,2.862,2.89,2.914,3.009,2.927,3.749,3.795,3.801,3.803,3.808,3.812,3.796,3.782,3.791,3.801,3.846,60,60,60,60,60,60,60,60,60,60,60,60,60,60,60,60,60,60,60,4.04,4.016,4.044,60,60,60,60,60,60,60,60,60,60,60,60,60,60,60,60,60,4.542,4.514,4.515,4.283,4.227,4.228,4.242,4.287,4.324,4.345,4.311,4.311,4.276,4.251,4.219,4.214,4.183,4.168,4.153,4.128,4.107,4.077,4.08,4.08,4.11,4.114,4.139,4.159,4.159,4.17,4.194,4.203,4.221,4.251,4.256,4.276,4.285,4.315,4.314,4.338,4.357,4.388,4.398,4.424,4.425,4.449,4.446,4.48
6.417,6.428,6.418,6.432,6.427,6.441,6.443,6.453,6.455,6.462,6.442,6.466,6.468,6.483,6.485,6.49,6.496,6.503,6.504,6.505,6.499,6.527,6.531,6.542,6.538,6.547,6.554,6.558,6.55,6.566,6.594,6.594,6.606,6.606,6.607,6.608,6.626,6.631,6.657,6.653,6.671,6.669,6.658,6.567,6.467,6.466,6.478,6.476,6.5,6.503,6.499,6.516,6.529,6.553,6.647,6.81,6.819,6.823,6.827,6.847,6.848,6.874,6.891,6.911,6.909,6.924,6.931,6.947,6.955,6.984,6.981,7.01,7.014,7.029,7.036,7.047,7.076,7.102,7.104,7.125,7.126,7.153,7.119,7.073,7.003,6.954,6.894,6.856,6.776,6.721,6.669,6.616,6.565,6.527,6.479,6.438,6.369,6.324,6.276,6.228,6.183,6.151,6.103,6.071,6.031,5.978,5.936,5.899,5.854,5.832,5.792,5.754,5.719,5.675,5.638,5.653,5.664,5.69,5.711,5.726,5.728,5.741,5.761,5.783,5.79,5.817,5.837,5.772,5.712,5.717,5.781,5.913,5.963,5.965,6.017,5.994,5.966,8.424,8.424,8.504,8.567,5.357,5.379,5.419,8.669,8.71,8.741,8.763,8.833,8.873,8.836,60,8.943,5,5.02,4.988,5.002,5.003,4.994,4.941,4.905,4.872,4.884,4.934,60,60,60,60,60,60,60,60,60,60,60,60,60,60,4.635,4.591,4.617,60,60,60,60,60,60,60,60,60,60,60,60,3.94,3.944,3.931,3.913,3.919,3.911,3.906,3.871,3.866,3.841,3.853,3.836,3.83,3.81,3.817,3.782,3.782,3.754,3.767,3.757,3.741,3.729,3.747,3.71,3.703,3.686,3.69,3.677,3.684,3.667,3.666,3.641,3.634,3.616,3.625,3.623,3.613,3.6,3.6,3.562,3.574,3.556,3.557,3.552,3.554,3.546,3.542,3.507,3.512,3.507,3.519,3.516,3.519,3.501,3.511,3.48,3.484,3.458,3.466,3.48,3.473,3.473,3.456,3.441,3.434,3.433,3.424,3.429,3.429,3.427,3.419,3.397,3.398,3.383,3.387,3.38,3.393,3.392,3.387,3.367,3.359,3.358,3.363,3.35,3.359,3.361,3.348,3.335,3.329,3.32,3.322,3.31,3.305,3.312,3.3,3.303,3.283,3.291,3.289,3.293,3.285,3.29,3.282,3.271,3.268,3.275,3.267,3.276,3.259,3.263,3.253,3.262,3.239,3.253,3.257,3.256,3.253,3.265,3.241,3.244,3.236,3.234,3.243,3.25,3.243,3.241,3.23,3.234,3.226,3.231,3.239,3.24,3.234,3.234,3.222,3.227,3.22,3.234,3.234,3.234,3.231,3.237,3.221,3.228,3.214,3.23,3.229,3.236,3.236,3.242,3.224,3.234,3.234,3.369,3.58,3.61,3.592,3.578,3.576,3.568,3.551,3.544,3.57,3.598,3.651,60,60,60,60,60,60,60,60,60,60,60,60,60,60,60,60,60,60,60,60,60,60,60,3.68,3.666,3.671,3.684,60,60,60,60,60,60,60,60,60,60,60,3.082,3.033,3,2.987,2.949,2.936,2.934,2.927,2.932,2.931,2.914,2.9,2.923,2.912,2.926,2.915,2.968,3.005,3.789,3.818,3.835,3.833,3.846,3.84,3.82,3.822,3.813,3.855,60,60,60,60,60,60,60,60,60,60,60,60,60,60,60,60,60,60,60,60,4.067,4.065,4.067,60,60,60,60,60,60,60,60,60,60,60,60,60,60,60,60,4.548,4.528,4.499,4.426,4.278,4.265,4.259,4.287,4.327,4.356,4.357,4.341,4.306,4.289,4.259,4.239,4.209,4.192,4.176,4.154,4.142,4.117,4.1,4.099,4.107,4.123,4.154,4.172,4.197,4.198,4.222,4.213,4.244,4.26,4.288,4.301,4.324,4.33,4.349,4.346,4.375,4.39,4.415,4.424,4.464,4.468,4.48,4.495
6.416,6.418,6.419,6.424,6.422,6.42,6.432,6.447,6.457,6.452,6.452,6.447,6.464,6.467,6.487,6.488,6.502,6.493,6.486,6.489,6.502,6.512,6.517,6.535,6.539,6.555,6.533,6.549,6.549,6.567,6.574,6.584,6.587,6.6,6.592,6.602,6.596,6.626,6.634,6.648,6.657,6.664,6.653,6.671,6.661,6.624,6.488,6.487,6.497,6.494,6.484,6.509,6.52,6.542,6.541,6.566,6.613,6.81,6.817,6.839,6.84,6.852,6.876,6.894,6.903,6.913,6.906,6.925,6.947,6.966,6.971,6.991,7.009,7.011,7.019,7.034,7.046,7.072,7.088,7.111,7.124,7.133,7.132,7.161,7.145,7.097,7.027,6.982,6.921,6.873,6.793,6.753,6.695,6.652,6.596,6.553,6.514,6.463,6.392,6.338,6.29,6.269,6.221,6.184,6.138,6.102,6.045,5.994,5.964,5.935,5.891,5.851,5.819,5.782,5.738,5.707,5.663,5.664,5.681,5.709,5.72,5.737,5.749,5.758,5.768,5.794,5.819,5.827,5.858,5.803,5.732,5.726,5.776,5.862,6.042,6.041,5.913,5.864,5.678,5.569,8.495,8.514,8.582,5.398,5.393,5.374,8.705,8.735,8.783,8.818,8.843,8.887,8.924,8.96,9.009,5.033,5.037,5.022,5.032,5.03,5.024,4.979,4.923,4.899,4.918,4.928,60,60,9.583,60,60,60,60,60,60,60,60,60,60,60,4.661,4.633,4.669,60,60,60,60,60,60,60,60,60,60,60,60,60,3.98,3.966,3.96,3.939,3.942,3.911,3.899,3.892,3.883,3.873,3.869,3.87,3.838,3.827,3.807,3.801,3.79,3.799,3.784,3.779,3.767,3.76,3.729,3.727,3.719,3.724,3.706,3.708,3.688,3.679,3.666,3.658,3.659,3.652,3.629,3.645,3.624,3.616,3.603,3.605,3.593,3.596,3.585,3.582,3.564,3.561,3.54,3.552,3.553,3.568,3.557,3.555,3.54,3.515,3.524,3.501,3.513,3.499,3.503,3.504,3.48,3.468,3.463,3.461,3.471,3.46,3.466,3.452,3.443,3.433,3.424,3.417,3.434,3.428,3.428,3.414,3.412,3.394,3.397,3.381,3.394,3.393,3.394,3.378,3.369,3.364,3.37,3.361,3.353,3.337,3.351,3.344,3.329,3.319,3.325,3.322,3.331,3.319,3.323,3.315,3.311,3.306,3.3,3.303,3.319,3.292,3.304,3.285,3.292,3.287,3.282,3.282,3.294,3.273,3.289,3.282,3.269,3.274,3.272,3.27,3.273,3.274,3.292,3.261,3.26,3.247,3.27,3.263,3.275,3.263,3.272,3.262,3.257,3.251,3.262,3.266,3.273,3.268,3.277,3.257,3.262,3.248,3.256,3.254,3.269,3.269,3.27,3.258,3.256,3.255,3.292,3.444,3.628,3.635,3.627,3.609,3.603,3.574,3.581,3.591,3.586,3.629,60,60,60,60,60,60,60,60,60,60,60,60,60,60,60,60,60,60,60,60,60,60,60,60,3.698,3.683,3.696,3.704,60,60,60,60,60,60,60,60,60,60,3.122,3.061,3.058,3.006,2.985,2.982,2.984,2.973,2.983,2.961,2.955,2.935,2.924,2.914,2.944,2.961,2.975,2.998,3.174,3.84,3.879,3.851,3.859,3.862,3.845,3.859,3.851,3.881,3.887,60,60,60,60,60,60,60,60,60,60,60,60,60,60,60,60,60,60,60,4.093,4.098,4.118,60,60,60,60,60,60,60,60,60,60,60,60,60,60,60,60,4.575,4.533,4.526,4.427,4.315,4.284,4.299,4.307,4.368,4.378,4.385,4.359,4.344,4.314,4.294,4.256,4.238,4.207,4.202,4.181,4.161,4.148,4.119,4.121,4.145,4.16,4.175,4.193,4.213,4.239,4.232,4.261,4.257,4.279,4.296,4.326,4.34,4.364,4.369,4.379,4.381,4.408,4.439,4.463,4.477,4.492,4.51,4.528
6.418,6.417,6.412,6.419,6.432,6.449,6.441,6.446,6.438,6.449,6.453,6.449,6.458,6.478,6.472,6.494,6.475,6.489,6.48,6.497,6.501,6.518,6.517,6.528,6.521,6.524,6.529,6.549,6.557,6.563,6.58,6.593,6.586,6.585,6.586,6.612,6.613,6.639,6.631,6.654,6.642,6.65,6.649,6.664,6.689,6.702,6.708,6.71,6.621,6.501,6.502,6.518,6.524,6.542,6.546,6.57,6.566,6.578,6.573,6.675,6.842,6.855,6.877,6.892,6.899,6.892,6.911,6.926,6.939,6.952,6.977,6.988,6.999,6.996,7.018,7.028,7.053,7.066,7.088,7.094,7.112,7.12,7.144,7.155,7.192,7.191,7.202,7.167,7.114,7.036,6.971,6.918,6.889,6.824,6.778,6.72,6.673,6.609,6.56,6.514,6.471,6.426,6.384,6.341,6.284,6.238,6.191,6.159,6.118,6.074,6.057,5.998,5.952,5.912,5.88,5.835,5.819,5.785,5.752,5.707,5.72,5.729,5.747,5.758,5.774,5.809,5.81,5.831,5.847,5.856,5.873,5.898,5.829,5.78,5.803,5.901,5.999,6.019,6.059,6.047,6.048,8.503,8.513,8.522,8.588,8.626,5.435,5.464,8.769,8.839,8.847,8.835,8.879,8.905,60,9.021,9.061,9.088,5.1,5.088,5.065,5.067,5.062,5.068,5.001,4.966,4.967,4.986,5.009,4.968,4.953,4.935,4.911,4.891,4.879,4.841,4.827,4.828,4.78,4.771,4.778,4.741,4.714,4.705,4.69,4.68,4.661,4.653,4.623,4.613,4.62,4.573,4.556,4.518,4.544,4.497,4.498,4.488,4.106,4.026,4.009,4.006,3.995,3.989,3.971,3.962,3.958,3.926,3.927,3.903,3.896,3.894,3.878,3.883,3.867,3.84,3.831,3.819,3.824,3.82,3.818,3.801,3.792,3.764,3.771,3.754,3.756,3.746,3.738,3.733,3.73,3.704,3.694,3.68,3.68,3.679,3.672,3.667,3.676,3.636,3.644,3.62,3.628,3.62,3.621,3.61,3.624,3.605,3.604,3.598,3.597,3.586,3.591,3.572,3.577,3.554,3.553,3.542,3.544,3.536,3.542,3.541,3.533,3.513,3.515,3.495,3.505,3.502,3.502,3.496,3.492,3.465,3.472,3.473,3.468,3.46,3.474,3.467,3.458,3.441,3.443,3.428,3.439,3.434,3.445,3.418,3.41,3.388,3.403,3.395,3.39,3.391,3.398,3.395,3.386,3.368,3.376,3.363,3.371,3.37,3.367,3.367,3.379,3.351,3.351,3.337,3.351,3.353,3.352,3.354,3.363,3.343,3.336,3.325,3.337,3.334,3.344,3.342,3.346,3.323,3.323,3.328,3.339,3.319,3.341,3.34,3.345,3.324,3.324,3.312,3.33,3.317,3.337,3.332,3.33,3.313,3.325,3.323,3.327,3.321,3.329,3.325,3.338,3.326,3.331,3.318,3.353,3.531,3.694,3.699,3.7,3.669,3.688,3.644,3.64,3.655,3.67,3.694,60,60,60,60,60,60,60,60,60,60,60,60,60,60,60,60,60,60,60,60,60,60,60,3.772,3.77,3.774,3.789,60,60,60,60,60,60,60,60,60,60,60,3.114,3.092,3.05,3.055,3.007,3.019,3.017,3.008,3.008,2.997,2.993,2.998,2.99,2.999,3.021,3.066,3.215,3.885,3.911,3.922,3.92,3.913,3.923,3.903,3.921,3.916,3.934,60,60,60,60,60,60,60,60,60,60,60,60,60,60,60,60,60,60,60,60,4.151,4.161,4.172,60,60,60,60,60,60,60,60,60,60,60,60,60,60,60,4.595,60,4.546,4.564,4.361,4.332,4.329,4.355,4.41,4.443,4.428,4.414,4.389,4.366,4.354,4.333,4.297,4.268,4.246,4.225,4.201,4.196,4.177,4.181,4.195,4.205,4.219,4.225,4.252,4.266,4.286,4.3,4.32,4.313,4.341,4.355,4.385,4.391,4.415,4.426,4.439,4.45,4.476,4.493,4.525,4.532,4.564,4.572,4.586,4.598
6.433,6.419,6.423,6.427,6.438,6.435,6.45,6.444,6.456,6.466,6.468,6.454,6.47,6.484,6.481,6.487,6.508,6.508,6.494,6.5,6.511,6.519,6.54,6.533,6.545,6.53,6.551,6.55,6.562,6.572,6.581,6.585,6.609,6.593,6.607,6.603,6.618,6.631,6.651,6.654,6.669,6.675,6.663,6.664,6.698,6.707,6.722,6.718,6.69,6.569,6.506,6.511,6.528,6.542,6.556,6.569,6.599,6.58,6.589,6.605,6.794,6.854,6.882,6.895,6.921,6.916,6.927,6.925,6.941,6.966,6.992,6.988,7.015,7.01,7.028,7.036,7.065,7.072,7.093,7.114,7.132,7.135,7.15,7.167,7.192,7.195,7.222,7.208,7.151,7.08,7.026,6.957,6.919,6.867,6.824,6.76,6.712,6.647,6.61,6.552,6.506,6.463,6.425,6.381,6.33,6.284,6.234,6.196,6.169,6.118,6.095,6.051,6.004,5.943,5.918,5.882,5.859,5.817,5.799,5.75,5.743,5.735,5.765,5.762,5.795,5.819,5.835,5.864,5.866,5.879,5.885,5.906,5.887,5.821,5.808,5.866,5.992,6.044,6.064,6.099,6.07,8.479,8.599,8.605,8.654,8.662,60,5.473,5.468,8.805,8.837,8.89,60,60,9.005,8.976,9.044,9.103,5.107,5.138,5.098,5.092,5.088,5.088,5.045,5.017,4.998,5.018,5.022,60,60,60,60,60,60,60,60,60,60,60,60,60,60,4.711,4.727,4.738,60,60,60,60,60,4.596,4.636,4.603,4.615,4.557,4.522,4.53,4.24,4.068,4.035,4.039,4.015,4.019,4.005,3.999,3.981,3.969,3.951,3.945,3.918,3.928,3.914,3.913,3.903,3.883,3.855,3.866,3.849,3.851,3.842,3.85,3.825,3.812,3.793,3.784,3.772,3.787,3.775,3.768,3.75,3.746,3.725,3.711,3.709,3.718,3.705,3.705,3.691,3.683,3.666,3.666,3.649,3.659,3.636,3.643,3.649,3.641,3.632,3.631,3.618,3.629,3.619,3.613,3.605,3.592,3.573,3.582,3.573,3.579,3.572,3.569,3.549,3.544,3.541,3.54,3.52,3.534,3.538,3.535,3.517,3.508,3.497,3.507,3.492,3.499,3.49,3.497,3.49,3.478,3.462,3.463,3.462,3.47,3.466,3.463,3.442,3.423,3.417,3.43,3.421,3.43,3.429,3.427,3.411,3.416,3.394,3.392,3.396,3.404,3.405,3.415,3.387,3.387,3.382,3.384,3.383,3.384,3.386,3.384,3.378,3.371,3.367,3.368,3.371,3.37,3.368,3.38,3.358,3.364,3.358,3.368,3.363,3.369,3.37,3.37,3.347,3.359,3.355,3.357,3.353,3.365,3.358,3.366,3.338,3.361,3.349,3.357,3.352,3.36,3.363,3.369,3.351,3.352,3.356,3.368,3.515,3.707,3.725,3.719,3.704,3.706,3.682,3.677,3.69,3.687,3.709,60,60,60,60,60,60,60,60,60,60,60,60,60,60,60,60,60,60,60,60,60,60,60,3.83,3.798,3.791,3.835,60,60,60,60,60,60,60,60,60,60,60,60,3.119,3.086,3.054,3.042,3.055,3.041,3.034,3.046,3.047,3.017,3.029,3.023,3.053,3.076,3.14,3.899,3.933,3.945,3.946,3.923,3.948,3.938,3.936,3.937,3.963,3.972,60,60,60,60,60,60,60,60,60,60,60,60,60,60,60,60,60,60,60,4.158,4.177,4.196,60,60,60,60,60,60,60,60,60,60,60,60,60,60,60,60,4.623,4.602,4.556,4.41,4.363,4.365,4.368,4.417,4.456,4.46,4.435,4.405,4.398,4.371,4.359,4.33,4.312,4.275,4.253,4.225,4.209,4.189,4.201,4.225,4.22,4.237,4.243,4.263,4.287,4.308,4.32,4.342,4.343,4.362,4.368,4.398,4.406,4.428,4.443,4.475,4.475,4.501,4.499,4.532,4.557,4.575,4.583,4.612,4.614,4.646,4.651
6.435,6.44,6.447,6.442,6.441,6.443,6.456,6.449,6.467,6.452,6.477,6.483,6.484,6.478,6.487,6.491,6.51,6.503,6.522,6.519,6.53,6.514,6.534,6.537,6.548,6.55,6.574,6.575,6.581,6.574,6.582,6.584,6.611,6.621,6.624,6.625,6.635,6.638,6.65,6.657,6.682,6.684,6.693,6.69,6.721,6.715,6.722,6.721,6.695,6.581,6.538,6.54,6.546,6.555,6.554,6.571,6.611,6.595,6.619,6.639,6.826,6.876,6.896,6.907,6.929,6.931,6.957,6.962,6.971,6.975,6.993,7.016,7.032,7.037,7.068,7.062,7.088,7.085,7.102,7.123,7.147,7.163,7.188,7.191,7.212,7.221,7.229,7.203,7.161,7.094,7.049,6.975,6.919,6.868,6.81,6.761,6.727,6.672,6.625,6.569,6.516,6.477,6.433,6.381,6.344,6.3,6.276,6.212,6.175,6.123,6.093,6.056,6.015,5.973,5.95,5.906,5.862,5.821,5.801,5.764,5.763,5.78,5.804,5.808,5.822,5.831,5.851,5.877,5.89,5.92,5.927,5.938,5.875,5.826,5.836,5.921,6.049,6.104,6.099,6.119,6.092,8.529,8.615,60,8.662,8.731,5.522,5.488,8.788,8.869,8.885,8.935,8.952,60,60,9.1,9.13,9.17,5.139,5.148,5.133,5.142,5.134,5.117,5.052,5.01,5.017,5.025,5.073,9.723,60,60,60,60,60,60,60,60,60,60,60,60,60,4.715,4.755,4.79,60,60,60,60,60,60,60,60,60,60,60,60,4.085,4.079,4.089,4.077,4.046,4.031,4.022,4.012,4.003,4,3.987,3.978,3.954,3.947,3.927,3.925,3.909,3.91,3.91,3.893,3.874,3.865,3.85,3.851,3.838,3.84,3.828,3.825,3.805,3.798,3.774,3.79,3.767,3.77,3.766,3.76,3.74,3.731,3.72,3.729,3.708,3.718,3.705,3.693,3.677,3.676,3.66,3.669,3.672,3.669,3.668,3.654,3.648,3.64,3.637,3.622,3.631,3.626,3.625,3.605,3.602,3.591,3.588,3.584,3.579,3.585,3.589,3.557,3.555,3.543,3.552,3.548,3.547,3.537,3.554,3.528,3.513,3.52,3.513,3.504,3.522,3.51,3.515,3.5,3.486,3.479,3.47,3.466,3.47,3.466,3.472,3.452,3.447,3.447,3.447,3.44,3.44,3.438,3.442,3.434,3.423,3.413,3.423,3.418,3.426,3.419,3.43,3.413,3.401,3.409,3.407,3.397,3.417,3.411,3.401,3.392,3.396,3.4,3.396,3.395,3.398,3.402,3.408,3.388,3.391,3.388,3.391,3.388,3.392,3.394,3.404,3.378,3.372,3.382,3.4,3.387,3.394,3.391,3.392,3.388,3.391,3.367,3.386,3.394,3.399,3.403,3.468,3.678,3.756,3.74,3.738,3.73,3.735,3.725,3.706,3.721,3.736,3.799,60,60,60,60,60,60,60,60,60,60,60,60,60,60,60,60,60,60,60,60,60,60,3.821,3.827,3.833,3.857,60,60,60,60,60,60,60,60,60,60,60,60,60,3.096,3.112,3.095,3.086,3.084,3.062,3.056,3.058,3.041,3.065,3.084,3.08,3.117,3.133,3.922,3.948,3.983,3.973,3.963,3.987,3.972,3.964,3.951,3.979,3.999,60,60,60,60,60,60,60,60,60,60,60,60,60,60,60,60,60,60,60,4.208,4.186,4.184,60,60,60,60,60,60,60,60,60,60,60,60,60,60,60,60,4.708,4.598,4.626,4.408,4.385,4.385,4.395,4.435,4.476,4.476,4.471,4.441,4.42,4.387,4.365,4.331,4.318,4.286,4.275,4.249,4.235,4.223,4.216,4.234,4.235,4.261,4.282,4.309,4.314,4.341,4.333,4.354,4.364,4.389,4.403,4.43,4.448,4.467,4.459,4.491,4.493,4.525,4.537,4.565,4.581,4.605,4.603,4.623,4.647,4.664,4.699,4.714,4.729
6.441,6.446,6.434,6.459,6.452,6.475,6.469,6.475,6.473,6.475,6.481,6.489,6.496,6.514,6.51,6.521,6.509,6.524,6.519,6.535,6.54,6.552,6.563,6.562,6.554,6.564,6.565,6.586,6.595,6.608,6.622,6.616,6.615,6.634,6.632,6.651,6.659,6.677,6.685,6.682,6.681,6.699,6.704,6.722,6.73,6.747,6.75,6.719,6.62,6.541,6.542,6.571,6.569,6.591,6.605,6.599,6.607,6.621,6.644,6.813,6.898,6.919,6.928,6.937,6.926,6.957,6.965,7.003,7.001,7.025,7.04,7.046,7.046,7.065,7.079,7.107,7.113,7.14,7.153,7.157,7.165,7.184,7.213,7.234,7.25,7.269,7.234,7.172,7.108,7.049,6.991,6.952,6.904,6.852,6.8,6.737,6.68,6.641,6.597,6.559,6.503,6.468,6.41,6.377,6.316,6.28,6.235,6.209,6.16,6.136,6.084,6.04,5.99,5.966,5.915,5.891,5.866,5.835,5.786,5.798,5.785,5.807,5.828,5.848,5.881,5.887,5.908,5.895,5.934,5.937,5.971,5.91,5.854,5.862,5.974,6.05,6.09,6.075,6.138,6.136,8.586,8.639,8.722,60,8.727,5.526,5.521,8.842,8.909,60,8.959,9.025,9.042,9.059,9.093,9.226,60,5.161,5.181,5.142,5.156,5.149,5.139,5.083,5.051,5.06,5.06,5.074,60,60,60,60,60,60,60,60,60,60,60,60,60,60,4.799,4.782,60,60,60,60,60,60,60,60,60,60,60,60,60,4.124,4.097,4.085,4.07,4.076,4.068,4.067,4.041,4.031,4.027,3.989,3.998,3.977,3.975,3.966,3.963,3.94,3.944,3.909,3.915,3.894,3.902,3.884,3.883,3.874,3.857,3.842,3.837,3.829,3.837,3.826,3.813,3.809,3.787,3.778,3.77,3.768,3.763,3.749,3.754,3.739,3.735,3.718,3.714,3.708,3.702,3.698,3.707,3.697,3.687,3.675,3.686,3.672,3.676,3.664,3.667,3.644,3.648,3.632,3.638,3.63,3.633,3.623,3.624,3.601,3.6,3.588,3.587,3.589,3.595,3.587,3.574,3.554,3.566,3.553,3.557,3.555,3.552,3.557,3.548,3.533,3.53,3.517,3.532,3.525,3.514,3.511,3.502,3.483,3.478,3.484,3.488,3.484,3.483,3.476,3.477,3.467,3.46,3.456,3.465,3.454,3.457,3.456,3.461,3.451,3.433,3.439,3.442,3.441,3.456,3.444,3.445,3.426,3.43,3.42,3.423,3.427,3.438,3.436,3.429,3.415,3.418,3.411,3.416,3.421,3.434,3.431,3.422,3.409,3.41,3.414,3.417,3.41,3.43,3.413,3.423,3.412,3.414,3.409,3.417,3.414,3.435,3.415,3.427,3.424,3.562,3.762,3.793,3.771,3.783,3.764,3.747,3.731,3.726,3.753,3.772,60,60,60,60,60,60,60,60,60,60,60,60,60,60,60,60,60,60,60,60,60,60,60,3.876,3.863,3.846,60,60,60,60,60,60,60,60,60,60,60,60,3.152,3.167,3.142,3.105,3.113,3.094,3.079,3.072,3.075,3.089,3.086,3.101,3.078,3.116,3.203,3.919,3.974,4.001,4.016,4.004,4.009,3.976,3.975,3.974,4.001,4.007,60,60,60,60,60,60,60,60,60,60,60,60,60,60,60,60,60,60,60,4.227,4.219,4.208,60,60,60,60,60,60,60,60,60,60,60,60,60,60,60,60,60,4.669,4.632,4.431,4.396,4.394,4.416,4.473,4.502,4.508,4.476,4.47,4.424,4.4,4.383,4.364,4.337,4.324,4.29,4.27,4.24,4.222,4.247,4.253,4.28,4.293,4.305,4.31,4.319,4.33,4.358,4.374,4.399,4.414,4.439,4.432,4.453,4.467,4.492,4.51,4.538,4.547,4.574,4.566,4.592,4.59,4.625,4.65,4.681,4.693,4.706,4.72,4.752,4.755,4.781,4.808
6.457,6.468,6.469,6.453,6.468,6.468,6.488,6.489,6.5,6.501,6.508,6.502,6.52,6.506,6.531,6.528,6.547,6.546,6.551,6.542,6.561,6.568,6.581,6.582,6.598,6.586,6.604,6.601,6.61,6.621,6.652,6.636,6.658,6.659,6.67,6.656,6.686,6.688,6.712,6.719,6.735,6.727,6.737,6.745,6.759,6.756,6.718,6.6,6.579,6.572,6.581,6.584,6.603,6.611,6.639,6.634,6.666,6.701,6.885,6.916,6.943,6.946,6.972,6.982,7.001,6.997,7.02,7.025,7.042,7.053,7.079,7.087,7.104,7.097,7.125,7.138,7.166,7.178,7.198,7.208,7.23,7.24,7.251,7.261,7.266,7.219,7.175,7.107,7.049,6.98,6.948,6.885,6.843,6.784,6.752,6.698,6.644,6.583,6.541,6.484,6.464,6.407,6.377,6.334,6.294,6.242,6.182,6.163,6.122,6.091,6.044,6.027,5.976,5.932,5.895,5.868,5.822,5.811,5.813,5.851,5.862,5.865,5.873,5.885,5.904,5.931,5.971,5.975,6,5.954,5.886,5.865,5.918,6.046,6.118,6.157,6.175,6.161,8.614,8.613,8.685,8.74,8.779,8.819,5.552,5.569,60,8.949,8.949,60,9.074,9.115,9.128,9.229,9.233,5.21,5.201,5.182,5.175,5.208,5.175,5.127,5.074,5.07,5.082,5.1,60,60,60,60,60,60,60,60,60,60,60,60,60,60,4.821,4.826,4.864,60,60,60,60,60,60,60,60,60,60,60,60,4.15,4.154,4.133,4.134,4.106,4.093,4.081,4.067,4.06,4.044,4.046,4.04,4.023,3.991,3.998,3.972,3.975,3.966,3.964,3.953,3.933,3.918,3.916,3.898,3.898,3.893,3.901,3.864,3.858,3.855,3.849,3.833,3.835,3.819,3.823,3.812,3.803,3.786,3.775,3.769,3.78,3.77,3.761,3.744,3.748,3.718,3.717,3.729,3.737,3.728,3.735,3.714,3.709,3.689,3.687,3.683,3.682,3.675,3.68,3.669,3.661,3.645,3.642,3.638,3.647,3.644,3.632,3.615,3.622,3.603,3.605,3.599,3.609,3.595,3.6,3.591,3.576,3.573,3.578,3.567,3.573,3.569,3.567,3.551,3.557,3.52,3.524,3.529,3.534,3.523,3.527,3.501,3.512,3.503,3.502,3.501,3.515,3.496,3.496,3.48,3.483,3.477,3.495,3.481,3.49,3.483,3.485,3.456,3.472,3.454,3.47,3.469,3.468,3.471,3.467,3.434,3.456,3.441,3.457,3.452,3.46,3.461,3.461,3.434,3.445,3.447,3.457,3.444,3.448,3.454,3.461,3.438,3.436,3.432,3.446,3.446,3.453,3.451,3.454,3.443,3.447,3.436,3.445,3.454,3.574,3.804,3.82,3.795,3.8,3.775,3.775,3.769,3.776,3.789,3.792,60,60,60,60,60,60,60,60,60,60,60,60,60,60,60,60,60,60,60,60,60,60,60,3.897,3.865,3.889,60,60,60,60,60,60,60,60,60,60,60,3.223,3.2,3.157,3.134,3.145,3.139,3.137,3.123,3.123,3.109,3.083,3.089,3.108,3.109,3.142,3.242,3.327,4,4.032,4.014,4.012,4.02,4.02,4.019,4.027,4.027,4.072,60,60,60,60,60,60,60,60,60,60,60,60,60,60,60,60,60,60,4.223,4.242,4.239,4.287,60,60,60,60,60,60,60,60,60,60,60,60,60,60,60,60,60,4.649,4.549,4.438,4.411,4.431,4.471,4.507,4.524,4.517,4.486,4.453,4.443,4.417,4.393,4.355,4.342,4.321,4.293,4.262,4.257,4.26,4.281,4.287,4.308,4.305,4.331,4.341,4.369,4.371,4.398,4.397,4.415,4.424,4.445,4.47,4.488,4.499,4.524,4.537,4.555,4.549,4.585,4.597,4.621,4.636,4.67,4.678,4.692,4.696,4.721,4.742,4.779,4.798,4.824,4.831,4.848,4.868,4.891
6.478,6.486,6.481,6.484,6.492,6.506,6.504,6.51,6.523,6.516,6.513,6.525,6.535,6.546,6.547,6.559,6.551,6.568,6.568,6.575,6.586,6.608,6.605,6.617,6.612,6.624,6.617,6.64,6.645,6.658,6.645,6.676,6.683,6.685,6.689,6.699,6.707,6.725,6.742,6.755,6.754,6.764,6.766,6.772,6.766,6.7,6.593,6.59,6.592,6.605,6.613,6.62,6.644,6.66,6.658,6.687,6.782,6.933,6.935,6.963,6.971,6.996,7.007,7.03,7.022,7.031,7.037,7.068,7.088,7.101,7.115,7.145,7.144,7.15,7.167,7.181,7.209,7.235,7.24,7.263,7.273,7.289,7.297,7.267,7.211,7.174,7.104,7.051,6.986,6.929,6.88,6.845,6.787,6.737,6.699,6.657,6.582,6.553,6.498,6.456,6.41,6.385,6.332,6.296,6.234,6.203,6.151,6.131,6.085,6.06,6.014,5.986,5.942,5.898,5.861,5.832,5.833,5.86,5.873,5.879,5.892,5.918,5.931,5.956,5.977,6.002,6.033,6.016,5.952,5.894,5.917,6.048,6.144,6.164,6.194,6.203,6.208,8.699,8.707,8.748,60,8.863,5.603,5.587,8.92,8.966,60,60,60,9.137,9.179,9.151,9.278,9.285,5.207,5.224,5.223,5.225,5.213,5.19,5.106,5.103,5.101,5.112,9.78,60,60,60,60,60,60,60,60,60,60,60,60,60,4.836,4.827,4.839,60,60,60,60,60,60,60,60,60,4.709,4.68,4.659,4.29,4.175,4.165,4.162,4.143,4.141,4.099,4.106,4.092,4.082,4.061,4.063,4.061,4.046,4.016,4.019,3.996,4.002,3.987,3.994,3.974,3.96,3.943,3.937,3.926,3.93,3.918,3.911,3.892,3.9,3.876,3.867,3.846,3.859,3.848,3.849,3.832,3.825,3.821,3.795,3.789,3.797,3.792,3.783,3.77,3.77,3.754,3.755,3.758,3.757,3.748,3.755,3.738,3.733,3.72,3.719,3.706,3.715,3.695,3.706,3.702,3.681,3.671,3.666,3.666,3.668,3.655,3.667,3.658,3.641,3.637,3.628,3.62,3.631,3.626,3.625,3.602,3.601,3.605,3.597,3.591,3.602,3.594,3.596,3.585,3.557,3.55,3.557,3.545,3.56,3.551,3.549,3.536,3.536,3.518,3.533,3.532,3.535,3.529,3.532,3.513,3.518,3.501,3.51,3.508,3.516,3.509,3.517,3.497,3.498,3.49,3.492,3.484,3.5,3.499,3.504,3.484,3.478,3.478,3.482,3.477,3.487,3.484,3.499,3.476,3.474,3.472,3.476,3.474,3.466,3.477,3.483,3.465,3.477,3.476,3.476,3.469,3.478,3.478,3.485,3.471,3.463,3.475,3.558,3.791,3.845,3.829,3.838,3.825,3.803,3.784,3.793,3.816,3.833,60,60,60,60,60,60,60,60,60,60,60,60,60,60,60,60,60,60,60,60,60,60,60,3.891,3.905,3.915,60,60,60,60,60,60,60,60,60,60,60,3.257,3.233,3.199,3.197,3.2,3.17,3.171,3.15,3.15,3.137,3.127,3.135,3.121,3.141,3.137,3.184,3.252,4.041,4.066,4.07,4.035,4.041,4.022,4.038,4.044,4.067,4.115,60,60,60,60,60,60,60,60,60,60,60,60,60,60,60,60,60,60,4.274,4.254,4.263,60,60,60,60,60,60,60,60,60,60,60,60,60,60,60,60,60,4.684,4.615,4.498,4.438,4.437,4.443,4.494,4.534,4.558,4.527,4.511,4.464,4.447,4.411,4.404,4.375,4.363,4.323,4.315,4.274,4.272,4.275,4.297,4.314,4.335,4.344,4.368,4.365,4.381,4.403,4.412,4.427,4.456,4.464,4.486,4.49,4.496,4.522,4.547,4.56,4.583,4.598,4.618,4.619,4.642,4.641,4.682,4.696,4.719,4.737,4.767,4.771,4.789,4.805,4.834,4.851,4.877,4.908,4.931,4.93,4.959,4.979
6.5,6.508,6.504,6.508,6.503,6.512,6.519,6.536,6.531,6.553,6.553,6.557,6.555,6.562,6.562,6.58,6.589,6.607,6.587,6.601,6.603,6.617,6.619,6.634,6.641,6.666,6.646,6.66,6.666,6.682,6.682,6.711,6.708,6.727,6.73,6.728,6.729,6.747,6.747,6.783,6.79,6.803,6.798,6.779,6.694,6.602,6.609,6.628,6.635,6.654,6.645,6.645,6.67,6.679,6.716,6.862,6.977,6.974,6.978,7.001,7.02,7.021,7.043,7.052,7.084,7.08,7.082,7.1,7.113,7.13,7.167,7.188,7.2,7.198,7.218,7.224,7.255,7.271,7.293,7.303,7.34,7.314,7.273,7.203,7.151,7.099,7.051,6.998,6.959,6.895,6.838,6.778,6.751,6.694,6.662,6.613,6.559,6.498,6.457,6.415,6.386,6.339,6.307,6.266,6.218,6.162,6.135,6.087,6.067,6.027,5.992,5.956,5.935,5.876,5.849,5.854,5.879,5.897,5.928,5.925,5.953,5.964,5.989,5.999,6.03,6.045,6.029,5.937,5.927,5.954,6.114,6.177,6.201,6.229,6.264,8.697,8.715,8.784,8.785,8.868,8.867,5.617,5.629,9.014,60,9.074,60,9.128,9.18,9.239,60,9.32,5.288,5.266,5.223,5.24,5.249,5.234,5.182,5.136,5.13,5.129,5.162,60,60,60,60,60,60,60,60,60,60,60,60,60,4.906,4.892,4.867,4.854,4.827,4.813,4.811,4.802,4.759,4.77,4.74,4.714,4.726,4.712,4.67,4.629,4.24,4.2,4.172,4.18,4.167,4.158,4.141,4.133,4.113,4.095,4.085,4.076,4.08,4.067,4.053,4.035,4.034,4.01,4.002,3.996,3.998,3.986,3.99,3.955,3.948,3.933,3.931,3.924,3.928,3.916,3.914,3.89,3.879,3.87,3.868,3.862,3.855,3.855,3.842,3.831,3.822,3.809,3.812,3.803,3.803,3.793,3.796,3.786,3.783,3.769,3.765,3.769,3.768,3.761,3.76,3.738,3.735,3.722,3.723,3.724,3.73,3.717,3.714,3.693,3.698,3.667,3.682,3.674,3.69,3.684,3.682,3.644,3.655,3.653,3.652,3.638,3.646,3.648,3.642,3.62,3.614,3.615,3.618,3.6,3.593,3.576,3.594,3.579,3.577,3.561,3.571,3.572,3.567,3.561,3.567,3.55,3.553,3.549,3.548,3.547,3.56,3.546,3.532,3.515,3.534,3.527,3.534,3.533,3.531,3.529,3.524,3.512,3.521,3.505,3.519,3.521,3.525,3.514,3.511,3.497,3.506,3.498,3.517,3.512,3.517,3.511,3.503,3.505,3.498,3.502,3.511,3.511,3.516,3.515,3.505,3.49,3.497,3.496,3.515,3.505,3.525,3.543,3.739,3.859,3.868,3.851,3.861,3.84,3.84,3.829,3.814,3.835,3.912,60,60,60,60,60,60,60,60,60,60,60,60,60,60,60,60,60,60,60,60,60,60,3.942,3.931,3.954,60,60,60,60,60,60,60,60,60,60,60,3.332,3.279,3.23,3.234,3.214,3.207,3.194,3.196,3.164,3.149,3.154,3.142,3.156,3.172,3.181,3.215,4.004,4.051,4.081,4.065,4.075,4.08,4.068,4.065,4.069,4.071,4.166,60,60,60,60,60,60,60,60,60,60,60,60,60,60,60,60,60,60,4.306,4.285,4.306,60,60,60,60,60,60,60,60,60,60,60,60,60,60,60,60,60,4.718,4.664,4.474,4.458,4.47,4.48,4.532,4.548,4.564,4.529,4.508,4.493,4.473,4.444,4.427,4.389,4.373,4.336,4.312,4.298,4.304,4.306,4.326,4.34,4.34,4.356,4.355,4.39,4.417,4.439,4.444,4.46,4.466,4.477,4.486,4.517,4.525,4.56,4.572,4.585,4.588,4.611,4.63,4.647,4.659,4.682,4.706,4.722,4.729,4.749,4.762,4.78,4.821,4.835,4.867,4.871,4.893,4.908,4.942,4.965,4.988,4.997,5.039,5.051,5.07
6.518,6.52,6.531,6.51,6.538,6.526,6.542,6.545,6.568,6.571,6.573,6.565,6.574,6.581,6.598,6.598,6.618,6.628,6.613,6.622,6.634,6.636,6.653,6.659,6.673,6.674,6.684,6.681,6.691,6.7,6.722,6.738,6.74,6.74,6.754,6.755,6.776,6.776,6.799,6.8,6.825,6.821,6.79,6.669,6.623,6.623,6.65,6.656,6.67,6.68,6.695,6.678,6.702,6.738,6.956,6.995,7.005,7.013,7.027,7.039,7.046,7.05,7.087,7.101,7.115,7.118,7.149,7.144,7.163,7.18,7.21,7.216,7.246,7.253,7.269,7.273,7.299,7.312,7.338,7.346,7.335,7.275,7.206,7.144,7.094,7.036,7.003,6.952,6.894,6.847,6.799,6.737,6.702,6.64,6.608,6.559,6.521,6.469,6.434,6.37,6.337,6.294,6.267,6.223,6.194,6.142,6.101,6.066,6.027,5.991,5.965,5.933,5.9,5.881,5.902,5.912,5.924,5.948,5.973,5.993,6.011,6.036,6.036,6.067,6.063,6.014,5.961,5.971,6.093,6.194,6.229,6.222,6.242,8.734,8.794,8.806,8.864,8.899,8.874,5.618,5.648,9.021,9.051,9.101,60,9.16,9.256,9.323,60,9.29,9.395,5.288,5.276,5.269,5.268,5.259,5.227,5.166,5.162,5.173,5.197,5.192,5.194,5.158,5.153,5.113,5.071,5.048,5.023,5.037,4.967,4.974,4.964,4.954,4.929,4.941,4.863,4.872,4.863,4.855,4.842,4.833,4.805,4.805,4.804,4.76,4.729,4.735,4.697,4.7,4.292,4.244,4.227,4.202,4.188,4.187,4.169,4.17,4.147,4.147,4.122,4.117,4.087,4.09,4.088,4.087,4.058,4.051,4.041,4.03,4.018,4.018,3.996,4.001,3.996,3.983,3.963,3.955,3.935,3.938,3.932,3.934,3.927,3.911,3.887,3.893,3.874,3.88,3.874,3.867,3.861,3.857,3.84,3.835,3.809,3.822,3.825,3.83,3.82,3.82,3.8,3.787,3.777,3.788,3.787,3.791,3.781,3.778,3.749,3.763,3.739,3.743,3.737,3.74,3.736,3.729,3.7,3.709,3.691,3.702,3.701,3.704,3.687,3.682,3.675,3.671,3.656,3.661,3.659,3.663,3.666,3.656,3.637,3.624,3.607,3.614,3.618,3.621,3.611,3.604,3.59,3.596,3.583,3.59,3.596,3.591,3.584,3.583,3.571,3.566,3.567,3.574,3.571,3.584,3.561,3.569,3.554,3.559,3.547,3.554,3.556,3.561,3.542,3.544,3.549,3.536,3.537,3.547,3.545,3.555,3.546,3.536,3.533,3.528,3.52,3.551,3.544,3.552,3.53,3.539,3.533,3.533,3.527,3.555,3.536,3.547,3.542,3.535,3.529,3.533,3.56,3.719,3.886,3.903,3.903,3.876,3.874,3.853,3.855,3.864,3.874,3.919,60,60,60,60,60,60,60,60,60,60,60,60,60,60,60,60,60,60,60,60,60,60,3.964,3.969,3.973,60,60,60,60,60,60,60,60,60,60,60,3.345,3.293,3.281,3.265,3.246,3.231,3.209,3.2,3.198,3.209,3.209,3.23,3.203,3.214,3.27,3.26,4.053,4.088,4.101,4.115,4.105,4.086,4.076,4.068,4.092,4.116,60,60,60,60,60,60,60,60,60,60,60,60,60,60,60,60,60,60,60,4.282,4.289,4.283,60,60,60,60,60,60,60,60,60,60,60,60,60,60,60,60,4.769,4.776,4.641,4.518,4.483,4.488,4.498,4.559,4.584,4.591,4.553,4.531,4.505,4.478,4.446,4.416,4.391,4.377,4.349,4.328,4.318,4.314,4.332,4.34,4.355,4.368,4.397,4.411,4.422,4.426,4.438,4.453,4.476,4.485,4.518,4.53,4.543,4.547,4.565,4.574,4.597,4.623,4.645,4.653,4.678,4.686,4.702,4.713,4.742,4.767,4.784,4.796,4.826,4.843,4.849,4.878,4.905,4.927,4.95,4.965,4.997,5.003,5.024,5.034,5.084,5.106,5.135,5.146,5.172
6.535,6.531,6.553,6.549,6.569,6.561,6.578,6.575,6.581,6.577,6.584,6.595,6.618,6.614,6.63,6.618,6.626,6.636,6.653,6.648,6.665,6.678,6.683,6.681,6.669,6.698,6.711,6.737,6.73,6.748,6.74,6.759,6.75,6.776,6.782,6.802,6.81,6.828,6.826,6.834,6.823,6.762,6.681,6.652,6.661,6.667,6.678,6.681,6.685,6.704,6.727,6.732,6.81,6.997,7.015,7.01,7.03,7.049,7.07,7.07,7.094,7.118,7.124,7.131,7.15,7.154,7.179,7.195,7.214,7.233,7.255,7.249,7.277,7.288,7.316,7.333,7.357,7.371,7.372,7.324,7.266,7.188,7.156,7.098,7.056,7.006,6.961,6.886,6.845,6.791,6.759,6.708,6.66,6.612,6.565,6.514,6.476,6.423,6.4,6.355,6.316,6.276,6.232,6.19,6.145,6.107,6.09,6.054,6.016,5.975,5.949,5.909,5.907,5.917,5.95,5.968,5.994,6.012,6.023,6.039,6.045,6.078,6.095,6.086,5.999,5.988,6.003,6.188,6.216,6.252,6.27,6.28,8.818,8.842,8.87,8.844,8.922,8.943,5.632,5.728,60,9.083,9.167,9.18,9.257,9.242,60,9.322,5.436,5.352,5.311,5.306,5.291,5.282,5.284,5.21,5.191,5.196,5.206,5.189,5.172,5.172,5.14,5.137,5.116,5.069,5.063,5.034,5.017,5.012,4.976,4.952,4.953,4.932,4.931,4.924,4.897,4.908,60,60,60,60,60,60,60,60,60,60,4.269,4.266,4.251,4.236,4.229,4.221,4.205,4.208,4.202,4.172,4.152,4.142,4.132,4.132,4.118,4.128,4.098,4.086,4.073,4.075,4.057,4.055,4.043,4.043,4.028,4.01,3.985,3.984,3.977,3.983,3.968,3.969,3.95,3.946,3.926,3.926,3.909,3.922,3.906,3.906,3.895,3.87,3.853,3.867,3.86,3.859,3.851,3.872,3.849,3.849,3.833,3.837,3.815,3.826,3.811,3.824,3.807,3.798,3.792,3.79,3.768,3.778,3.766,3.774,3.766,3.754,3.741,3.739,3.729,3.74,3.722,3.72,3.725,3.714,3.706,3.702,3.697,3.703,3.689,3.702,3.691,3.678,3.652,3.658,3.648,3.654,3.641,3.655,3.64,3.631,3.611,3.633,3.621,3.626,3.625,3.624,3.619,3.609,3.604,3.609,3.598,3.603,3.599,3.606,3.605,3.592,3.573,3.578,3.578,3.597,3.588,3.597,3.578,3.576,3.566,3.577,3.57,3.571,3.57,3.585,3.576,3.564,3.558,3.564,3.56,3.575,3.563,3.58,3.564,3.572,3.562,3.563,3.568,3.572,3.563,3.58,3.565,3.564,3.564,3.569,3.674,3.884,3.937,3.927,3.911,3.9,3.891,3.88,3.881,3.907,3.907,60,60,60,60,60,60,60,60,60,60,60,60,60,60,60,60,60,60,60,60,60,60,4.029,3.983,3.987,4.031,60,60,60,60,60,60,60,60,60,60,60,3.304,3.311,3.273,3.259,3.241,3.224,3.221,3.211,3.221,3.212,3.228,3.248,3.278,3.213,3.435,4.083,4.111,4.129,4.135,4.125,4.115,4.095,4.109,4.106,4.136,60,60,60,60,60,60,60,60,60,60,60,60,60,60,60,60,60,60,60,4.333,4.306,4.347,60,60,60,60,60,60,60,60,60,60,60,60,60,60,60,60,60,4.744,4.673,4.531,4.494,4.51,4.52,4.574,4.604,4.606,4.573,4.543,4.514,4.484,4.459,4.442,4.416,4.392,4.372,4.353,4.323,4.342,4.348,4.364,4.379,4.406,4.413,4.441,4.435,4.442,4.454,4.479,4.502,4.512,4.533,4.556,4.555,4.576,4.583,4.603,4.631,4.648,4.665,4.688,4.693,4.7,4.718,4.739,4.764,4.788,4.804,4.831,4.843,4.855,4.869,4.904,4.928,4.957,4.966,4.987,4.994,5.031,5.047,5.066,5.069,5.113,5.152,5.177,5.179,5.216,5.226,5.258
